10.455128322116297,37.406171132264134,0.1581001503278659
-28.391169639961884,16.35980910302799,0.24482721825216586
4.857938321823831,25.23321921364621,0.20650958446767104
-15.847555671049951,-1.6016068547091884,0.15855485249706308
-41.55894277423516,-15.112869590084543,0.19269972812419947
-7.941299872803086,-18.193197499329685,0.16729832662002364
18.117620878751843,17.026681533857754,0.2873965222302548
-11.704592966151637,-14.83358043885255,0.1665434176346994
24.0339255995401,28.34765915509985,0.28047832463627814
4.064081893265601,15.633793908485913,0.20297484387964776
-10.820687875029565,-5.469107655326239,0.19289950729133654
-40.61323048290054,15.014093053107521,0.18962862940271827
-23.334195848813042,9.809065886076032,0.24687463795936412
-17.27537609343444,-3.0135663576426115,0.2925194177375473
-32.67184442581361,2.145372974235164,0.21897823695637403
-36.49451358061936,-8.812643141910078,0.06251706739085663
-30.43901297764771,-2.3481432922504606,0.26444054884921214
-9.795260608179788,5.2354261292198006,0.20108641238780614
-35.9074237670638,-28.01525703981219,0.1830654730795556
17.529931535317335,-15.849301330075674,0.27449290385394104
-8.86468640766577,7.64659758407452,0.1846811515848972
-29.725177630728467,-3.0609658745729975,0.18982356090984243
-6.332761756978791,0.30504596644905463,0.24635580506976196
32.37417407143077,-27.698533194083325,0.1609680668136908
15.778495436120195,28.323431117862306,0.15251405580845834
11.60090690434922,8.417944987654783,0.26206229050047913
-13.247018203160433,-43.41697643502947,0.12365278026980565
8.177296644280545,-22.073707578599503,0.23289371017717156
-18.321284349379347,47.45977680754665,0.2308174483775653
-30.401674210349555,-25.349138576733587,0.17447872774320114
16.920975529554543,-46.8695006086981,0.2017070790743399
38.04054037310588,27.305585177911297,0.21597392798897158
1.7570769585213888,18.722072450541564,0.1467983710149806
19.63972719939399,-30.326549945570985,0.22507059412356492
-12.19764848978913,22.502135043950073,0.2689743509987456
-46.691250023244905,0.5866436627113155,0.23812388932195808
-3.8922879032649127,-2.3740129583886933,0.2760870537666367
25.463413405643642,-9.667400135906682,0.14620852251952665
-8.245226533564969,24.748320596982133,0.12845024823299817
12.264443269814587,-30.925676449697985,0.18273052058640726
-4.813439898600143,-48.99195802487944,0.2519303597199504
-16.553351121408575,12.321694679239858,0.18930653747981954
-18.276480479247933,23.038692391577552,0.24414919574763005
-0.5563552503065713,-5.476565934055504,0.15523532422351324
-9.33085925054266,-19.747857150698728,0.21491361544863558
12.00958759044143,23.204251961892354,0.2443237911217208
2.337923307541396,-11.880994967191324,0.2200012307878079
-1.7980894789817916,42.71119338282824,0.1695738064552888
15.044045227396904,9.419951743197657,0.12308076860935187
3.330067543724259,35.27365476122865,0.08693288455863918
-19.127788747329355,4.443144288905766,0.25943823005328487
-47.743149702042544,-20.752019212631225,0.19584027525311817
-5.4176087395326675,1.9410192869687186,0.09518491800325742
-39.14679408542315,-35.03853610875828,0.2554887607510836
-37.88728813457384,-5.006089634206921,0.19472602758018326
-36.02973781314594,9.945166575943412,0.21276131919335686
21.772765869633368,-40.70129521413977,0.19309016877154708
33.96239812677362,45.58186019996118,0.12931868053264922
-22.569067715771844,11.09890057058572,0.1723063587544669
27.14756263009086,5.2120719022646655,0.13177130993368685
17.25309243482643,-11.192986295703207,0.18125310193757369
47.90551382120837,20.159510329501412,0.22329338770988125
-5.334310421474616,11.14253744008533,0.18662513400089262
34.31845237424147,-2.192863090482461,0.15288440966136907
40.814264005799586,23.834670673658824,0.15122565675904429
0.7629610872675079,-25.24900052787781,0.14940952826777543
-14.769673285498458,19.21241400739449,0.2195508250434453
-17.14980521611497,15.811431445400629,0.2599962291140702
-23.86417795557297,20.27067187155355,0.21596507091630687
-7.304276480325038,-15.410383371551658,0.08820781573375998
-3.8960766366381003,22.66629862965494,0.3116630104044241
-41.55645524860771,-13.31364514633949,0.14369498386723045
16.784444083020897,15.769794280827204,0.15440513888580604
-25.430177565324268,-2.9738845478514406,0.1825287704902329
0.21647073189956711,-4.15342239179652,0.19372551661638857
-9.714338006496622,12.487869335051915,0.23242250425773364
9.919389270831752,12.417653999352506,0.21163035398786728
3.229476397560415,-9.62341755513738,0.2066275175461328
-25.903567037277504,34.719366272017474,0.16170814669963623
-20.93859544836128,-12.546342558719306,0.22073939136745857
-12.176672141406591,-6.131987858899212,0.24364189615641957
-8.481442016741374,27.140185098120316,0.18029749762230768
19.043558689966535,-8.557631743346349,0.20210844601617003
42.545813080759174,-14.703275774173981,0.2961857328214843
-33.578301255615216,-9.121718376338556,0.18053619812267702
13.192767637490324,6.714807307353097,0.16395394993507453
-8.484505593011255,6.998910430311328,0.19302335333659598
-20.212914247813217,12.205714445088855,0.18005703402500006
27.667551660972016,26.625392730390352,0.3350464288483821
-6.620654595526794,8.745254417331475,0.15146522546592592
32.81781193300875,13.580917920070018,0.1385254231350613
-3.1044552002700767,1.7328724217016058,0.1821777483012809
14.426115480805448,48.28301368784333,0.16848012177156974
-17.21586126843132,-4.211772841047208,0.26443885711832715
28.8843162115083,13.690833143718129,0.24374561309981166
40.69139354525629,-12.206579728636296,0.12724339429069342
-2.8375144126625287,-38.714926027496716,0.11340244266627662
-12.729281604667955,-34.279691626077884,0.1665745612800303
-27.991305714748236,2.1732307946308813,0.12264281620128316
12.251025849039301,12.010807512526984,0.18061757417153207
-5.786040023425967,-1.2856134001846238,0.2417365696459819
-14.406584131302333,19.551297140186914,0.12662227490793732
11.548540489835798,4.650125082619707,0.217168236397294
-0.5649183710995681,39.667723258624974,0.15569308788163422
41.59779251362956,22.14443901411017,0.27546009912698
-13.316563330128,22.551947630722992,0.13173811804039165
-28.930170224297985,1.0332656103821467,0.15422677863211734
1.226237708277169,-8.987676589368553,0.27307243594702874
22.321532602848887,-4.806760600411264,0.1905125984895007
-0.3605252489423051,22.628970775641594,0.19572956760934004
-20.18160729595701,0.4325558872702761,0.2325277676885855
36.990353731945405,20.376128539244313,0.20089634439962406
-6.771070080024244,19.117384670676334,0.2051921317180469
-13.148785767811269,18.271008069980923,0.2557045736059681
-3.018857348156513,-25.777010831805036,0.20446680629195707
-3.247381512737342,9.04726136685625,0.2693746709767443
5.092890955422541,-16.774551158462526,0.19984869649651582
-13.721249984325082,-10.94582146636621,0.23864953449232124
23.507846079210694,-17.682639647976174,0.19763070989124676
-11.118509052002787,-19.151385836691993,0.21093523913477297
40.72167127862846,-9.439975213613709,0.11375529265376691
-15.451904305711867,-32.58068919054618,0.2623061671349232
-33.90126277575351,-19.821265453499066,0.23075567290397275
-1.1631348930195982,31.142753115149276,0.21690230912983532
-27.2071117260647,-16.947804041790544,0.1663256161763377
-14.450929676055338,25.942388849781413,0.1344765663563764
-21.374697465538397,-45.994218780449984,0.2706144581220324
-7.059465547330293,22.341770715301095,0.22813449835447436
47.623496233572865,-22.647249041263894,0.24745902143264173
17.093346366257542,-8.05469043565431,0.2356676129264627
-23.288322192949096,-24.637458506327178,0.185156397500834
-27.630944366026018,-13.472443972303743,0.2254996666845265
-20.63193251941803,29.91433934102286,0.1260624671775869
23.47377929628593,-41.41528295232656,0.16725189636837903
-15.198797206464153,-11.285574778457018,0.22560072631214675
-44.088396056662354,-12.981607679947253,0.25267071607633246
29.711533176385995,-13.916059268504647,0.2029376025985458
15.77099790809751,-48.229609399109655,0.19352076780878916
12.740162720288561,-40.986821873292925,0.1750610997397584
-6.374322962774253,8.68004800566179,0.20058674808608
-4.758984695891436,-17.970343185293668,0.24781591092359945
19.22243600019997,29.252692801728834,0.1414345426148498
-1.2887190323482454,-18.451787326247434,0.22255451805298615
10.994786060300845,-35.823035649187105,0.19588736283379168
-6.673172268206897,-30.147484234411458,0.1423554074859994
17.494017900311928,2.691019968528029,0.2764198189084273
-13.537295406548624,-7.365015308295413,0.2151252434538488
16.479757231545122,4.754406043095373,0.24675449271239736
4.845152831032178,-28.85520365189496,0.27289888478596525
-18.730460800872198,-41.263739164586596,0.18430914095583179
0.4528070404429137,-1.170787360713644,0.2530382887847467
33.259372078428136,48.428417530607355,0.23051780949332484
37.693768795391364,4.136374042751452,0.20457680889901206
10.594359470351977,-2.604530801010681,0.25638554949926456
10.586581597591604,18.840247708950027,0.1853129051159619
-28.123555309062905,13.233673434451266,0.09449414996858141
-8.574808604678951,7.833950668128238,0.20007877842975097
-34.41147738305095,-34.80197844487039,0.10433710850385661
6.9682854081032515,-31.77053079819586,0.1579332166541873
-2.1663694793442247,-20.664913041653303,0.22631302948188525
-18.89709408465868,-26.893426709066446,0.14624316237914145
10.864900042117313,-0.6341228717907688,0.18676600612737382
-3.270605682277504,7.4438931778669835,0.19013348444797948
22.679645953962407,-9.022425565037043,0.2020025655941047
-14.27417976765911,-11.44859571297466,0.2446135532306941
-27.34206265114476,-21.69135656246479,0.17039019327333843
-31.182241818713287,25.11537104442522,0.20896498225851246
-6.414978090573807,22.033021910183066,0.16695692818792757
-22.322798160726517,-10.875204100823899,0.20387721829683497
-2.7376410204991584,14.570448185252472,0.18428380771930683
22.66338241690373,5.78149781408345,0.22024233349933675
22.439102945829816,29.02933487125206,0.22390662068433848
-14.957654070026456,4.091675156302825,0.2938333983604091
23.39280598746247,-11.788573036729298,0.11677919273777013
-3.2515667439803524,-0.6550125125352569,0.22386968360201817
-23.094893810928607,-21.249093990375602,0.12948194597382612
2.2963315200661047,36.21040085378895,0.12090631403636481
-14.913008123611219,-32.30559108403417,0.23005109090935666
-18.470865454251474,-12.1027690465415,0.24403295954454884
-8.736995781221584,-8.398034155283941,0.20456564009304107
1.6762443234603532,-32.647832241406164,0.23604711026091071
11.017745134639469,-39.40186855429413,0.1749090794635207
5.524907182254115,5.552920646747233,0.28882545001782184
16.266377253413964,-2.4773099033705037,0.24056866203943797
22.010021251900287,48.197977534635044,0.2819396721829028
8.076505861690537,-38.21918436475502,0.1416066056998989
7.170204246678981,-24.926623642123566,0.2128379748880451
1.981034130706465,-44.63298476059597,0.1126694862547905
40.45753466586955,19.958342268486703,0.17030833296359107
0.009227032946537423,-13.540779488150411,0.2693464512257527
-11.722227421862366,-2.9254706412654445,0.1472413527280263
21.928757800510418,-2.658538289837746,0.08518101891279646
19.20375870688469,-28.708381963810474,0.217692920709808
-44.02031166728099,-21.559873654323493,0.21189172328522055
8.25716428770487,33.83869244441392,0.15664328860839408
-2.7886018433590634,-17.36989231385318,0.21460561797262753
-14.327418855480381,39.804714390797116,0.22295795589490475
-18.338337664173775,-3.9023406376644934,0.19149206861779056
16.177098914234715,-12.386972372713657,0.1591093505957923
0.31894543720811663,41.31866469548087,0.17530178617518333
14.320447629928704,-21.3830425810155,0.19165121616611402
-38.15572460298308,-16.363595183918246,0.1588056358068538
-25.71014069231538,-19.34129122662606,0.2758330664492632
-12.551499187644655,28.845820154336206,0.19516911030804118
-23.319863694647655,14.14224848202766,0.16634718179544922
-22.20589477145798,5.923878599750737,0.2337902179271602
45.15607270657515,-25.39350307876647,0.22797797119856497
23.99402659428183,17.453650539941485,0.1718569352878991
-34.90421359950944,-37.557291370587414,0.22011217723489038
14.173460163689612,-32.00492567805438,0.2220395646052835
18.846500208033444,-9.976827205523971,0.24582789269973998
-4.641498080787192,-10.472398031038953,0.2138215220997725
-18.705163102816126,-25.878093887385827,0.1297044869150638
0.8723743524064428,-4.843486113918996,0.2122427985098103
18.78027571515218,-5.884088900979942,0.20027942500781643
47.66248393983261,2.3194671221276995,0.1865574534173427
-11.616241678759911,-13.985250929803076,0.19029168494750454
-9.983776131862667,-26.195651015913857,0.31102384550350415
6.568224199684083,2.582543388623633,0.18727494057431146
-16.331271846041055,-11.547961564253749,0.224320054960906
46.130681094274095,-17.462182191029896,0.15914216206566772
10.47810489087536,15.96194571022875,0.1350751853986479
-10.962146920017785,-9.052583031060689,0.19085453992612395
-13.050591196186442,-31.515119527745444,0.14584241401335407
20.958663918715555,-34.06587782183222,0.15044792637925103
-9.005709123888133,-31.50384317188427,0.10255331564528
-13.131030442553818,-29.43796784678097,0.19059761602193093
-16.88362241913274,-5.746560568402149,0.2431076443357588
13.37890259036608,6.076619954388983,0.2033337680366753
1.3442630651606702,-44.069097319327824,0.1406525446989924
-46.007508679472295,-9.78944264905897,0.27639311386208876
-20.91232924201856,25.14349694402574,0.1387674090166483
15.752418834623574,-15.474876555834163,0.2891363879127993
24.449718239604625,-15.07074351842931,0.15140210402407916
-22.126525384593652,-6.200436611367132,0.25680169885759047
-46.437670219630945,15.487119673282127,0.20750833901869886
4.056460853106252,1.6155566097967402,0.20192041977633352
-9.537606702146755,22.746233418421056,0.18003999082585315
8.704528171489837,4.063335606063147,0.17605819888353658
8.921996082442398,-25.02808100411712,0.2715329801836953
-34.73496605316823,40.68551830637374,0.21685941553300897
24.359092886485435,16.585476443153745,0.21909456279399137
-26.609778472126873,10.351932146536186,0.18417148285756915
2.858915719433074,-23.183242581644713,0.18691728209272185
-39.02262272165777,-7.401203641440043,0.20408365173383192
-38.541685812375114,-3.3093131776452434,0.21274533112676647
-40.767007081488075,-8.581831883945162,0.24981198861365508
31.878320644986125,-1.7593487561930472,0.1977169290972082
-30.580192852549825,9.947247171829305,0.21288055961148117
-3.3330014033565245,-21.719431930569915,0.264366415264372
4.9417767265869035,-7.499051274611582,0.19255009247398353
-2.527418277944743,-34.45640502772352,0.18857954857294054
25.773976671483872,13.39093402169608,0.2883716010531114
-21.42577706539838,-40.318452682775145,0.17370810556285687
4.6700282530510595,13.68140589849784,0.19966947905012603
9.478388983262453,19.63825362996633,0.27771518431842573
-47.27189611853318,-30.831251222257215,0.16511596489038222
2.3431800114555625,4.182037047838407,0.25260492103057625
-29.41245629899311,-6.930019350454791,0.12873780975534355
10.413099848688546,11.985811385724901,0.2690605422837786
39.78033002269377,17.137480026600656,0.1339163227539344
-15.094369344433648,45.87367353157713,0.18421030562535834
3.636620631119674,36.14371802385856,0.24482252108444885
1.196664683488381,43.12569567357639,0.20182034040878477
-12.77837603198424,0.7377563540463314,0.2788696276286443
31.887745470234442,3.5857272452883073,0.25081304560318746
8.71702825776527,-1.6838893973980251,0.17634152010260482
35.14785706317322,-0.03058157308481055,0.2055087319458032
7.810573432404558,-35.36480158968007,0.1952519586040624
24.75398473115374,-7.688559766279021,0.27487059693283206
2.296116579965014,-30.34919475052915,0.17482213532350493
-44.97461171927857,-12.842889212749641,0.17830328080479585
-20.88120924656946,-26.618101834949343,0.2490222766069871
-5.904813214898597,-3.9720721223060274,0.11309513539027498
3.593422505001835,-22.73775911421553,0.34069565660594375
24.151140666170775,6.951278260740609,0.26891129414897263
31.01658580936627,1.2218944171352275,0.3200875843115204
-21.12670078687539,-4.5476355953014265,0.21250226227054944
48.27478295681743,-3.514823066013518,0.24087669464898326
1.2788677580203638,22.632477018650324,0.20563614301234787
17.24421563457616,1.5222924596995024,0.14974486423985178
22.074940006987987,14.985976264838936,0.18356705559992498
44.898577122982786,-25.93760228937813,0.14710375399925757
-29.82772124559355,-26.567320574434977,0.2174426884725038
31.806905180348533,-10.689037390446462,0.14316227287578392
38.7388011221325,17.91199758328196,0.17669331439120572
9.953608408098615,-30.28726623225722,0.26148177106784476
20.572288400107592,-32.85951260215633,0.24733148225087834
-7.097210308796041,12.730597397586571,0.21085992097431167
36.277418914221975,5.844958156113737,0.20135900743700447
-12.237033457391558,32.131607340062246,0.2238163051185587
19.923472874134983,-14.508083134417488,0.20023088139082865
41.91832537143974,16.261213825164024,0.1484156758821209
1.2052199262929064,-21.700584466369904,0.22501118283014604
34.0214150142043,20.54388191594672,0.2223158418801212
21.28310409766804,-7.839701968086632,0.17121819874815447
-0.910734711915063,19.686819828461076,0.1756564413668275
25.732548578748844,7.809889219060423,0.12849139980306812
-16.17480373837581,-36.602218712732046,0.2325873876386262
13.840601265946425,-39.20970403223174,0.19761290978537718
-9.780637411660292,18.1560327108577,0.18799641079681026
-8.831870697706206,-33.496422735298275,0.2514336797002883
-11.13044041448441,-4.5197804513826005,0.1997276700894846
2.803469272805369,35.58092139473054,0.1968087559939533
5.009966199462214,28.37683195092069,0.1948128729264826
14.864619767883388,-3.1058924688807825,0.19021866322179976
1.0389957903802292,4.579240388248086,0.21516999653158403
13.660421648318449,29.287287877979733,0.1719117839390625
-44.27839224882686,28.224687042377916,0.21849206309970148
37.23788053434998,-8.472922580502239,0.20920196356049214
44.59026606276094,6.802323820116947,0.16830282194564006
-30.967808858531388,26.56491780017674,0.24453059930900575
-43.261067988043855,10.973179826344497,0.1848510438568486
-26.732372591488325,10.151096849463851,0.23241049057493413
-40.691518768215765,1.560377933893001,0.20134720105769077
30.465530119395112,16.30315748723391,0.23103014181865478
-47.39054005154703,-13.24121095759551,0.22338209253160785
11.360711797778652,-17.55520369559031,0.16453720547544262
23.33889615768615,-18.358621866613742,0.10668209500571284
-7.748016331603877,-13.286327343155222,0.2134998341313244
5.22334383138408,9.809735769717989,0.17869520627029145
-17.937524286927022,23.964020776516605,0.2440443289041846
17.683266780744912,-7.281392841221438,0.18775335600459606
41.80277058001723,13.602458058151903,0.13392232708814666
-4.6917811053709615,-26.882009393569522,0.23908602361722914
17.4840030748565,11.536437961313109,0.16189187966197346
30.435835901876157,-24.612878479201704,0.10101680778343065
-13.712981303159832,-5.2587857484562175,0.2578941885815809
31.226973287075836,18.66965733121021,0.24376078160319278
34.7469550698101,-33.47365053814437,0.13172480433799605
27.150377026335182,-16.2989803196481,0.1635613797351396
-26.804438236432897,-10.81400082734773,0.2093837583283985
25.261840025769374,13.47906502563155,0.15941151390355862
-21.450869429407938,17.47701938449414,0.24413694889610202
-17.45249246372325,3.549965533150903,0.17720060591620962
7.6938409004561255,-45.87164855609242,0.21269335224452296
-29.322930629152854,-3.2988500051544016,0.24224613969032846
-25.06998790880125,4.281056120792936,0.20686925966484088
-2.378723693016748,-21.46009013650575,0.18648125875239488
1.1346533961624687,-0.1467541556330716,0.057501812262622826
43.015660853039556,11.867918080508385,0.25952179106738726
4.295024159336174,-17.18161305327717,0.17770923074494488
-10.891852899609995,22.497503835670887,0.1642824981181726
19.54581926417242,-30.730666234438413,0.1881873809476345
28.32577015296342,-24.029310656847148,0.2187747807315956
1.6769924199931219,-9.883216836289062,0.11897899281943095
28.504280111073793,30.892796202425153,0.21344049733194947
26.93601507838659,-15.571678038903226,0.1534155628836908
46.98242361799839,7.755617240738938,0.18892219910342445
-25.068052706653564,6.527450604983365,0.24573446596458992
-4.159831417085592,-0.2747386287089996,0.16941430777242264
-9.248452434075126,-3.1379219094864435,0.16870042878285357
-35.65862735946962,-6.051164323830346,0.24632379663152107
25.596823726585672,-3.098612180421385,0.20243772093908993
10.021534301451824,-11.432472105296984,0.23524486270734515
-11.72600160907353,17.631306290761255,0.19957180618209067
-19.897098628880137,-11.49445511512229,0.09159900732930103
27.20605501702919,-2.7205698028674354,0.2471514525302853
46.756673281275766,35.47563487485803,0.2307745791901055
-19.13179885604387,26.007160697032404,0.23232324021611278
13.02404268259405,-16.334866468597845,0.29728414765854005
-19.95344028806039,4.450147364901714,0.15667093705650154
-16.356476350668444,29.398429433059103,0.1905524648182308
-12.030191448015506,29.469913373565817,0.29763404415644684
-19.461297603721246,-30.80411003167189,0.2402862154925118
4.717798157795635,-48.51028127951655,0.164680623740218
0.27726615016575334,-8.389591237200458,0.24741335830472025
7.724200975700306,-29.180968401728812,0.2491197188203143
-18.33431689995563,18.85684929153158,0.21569506305320285
4.348897065742192,23.52885051853169,0.23241718270700082
-5.3355802983749765,-22.253012160589677,0.191029754099361
-40.46314740004012,27.430405684828735,0.20163247485400157
13.04220171157342,5.868765564293233,0.1291541316194797
-11.310658800008335,-11.184420882448375,0.18211133093187865
0.900953441885527,19.485717799009187,0.12447628522940105
33.600696048707995,-48.456656082001636,0.17974361489619364
-42.80751326278153,-15.906394386516226,0.2585189683991093
-12.065734467338753,19.231003972124803,0.13250086480871864
-7.224778465877176,12.869760781149209,0.22907671294855425
-24.459057858224842,-8.054786880115914,0.13156204041479663
5.597101949425571,6.285817791643932,0.14925506962546028
17.976514790207066,-12.842720967459758,0.24642458757809219
-31.474564218037543,-19.947857919532506,0.27990123176505377
38.416968877686806,12.779647947116752,0.19117430871245372
-22.243942144803704,-6.156485766079165,0.2051193184134876
42.41451581853485,-2.0917712814759843,0.24699709900229183
-3.643922987212425,-12.833027661541344,0.2465763337945417
14.772953225374275,23.048250983542296,0.18724789590101182
14.992624610716598,-10.96003914011683,0.07353629659293784
3.7619235492943908,24.139784841125593,0.07533107293532718
0.0968858013149609,-44.34960248001798,0.19681262679316017
0.14239676061596146,-13.509269143777894,0.2159853857385522
25.684107779439795,2.6725056202298014,0.26622073150927494
13.021708783534658,2.1443700170238436,0.2337547123483664
7.926733288389788,-32.56783136217922,0.24940767786960943
-29.430188708025458,17.710563662438496,0.23689258019207873
5.496738501127667,-25.398554507498332,0.23266554384510077
-38.49324301126118,-5.750292134005209,0.2018882621699898
-5.145376965558333,-6.215413512343973,0.14131217297278875
29.012787542714673,36.902630246184145,0.2403948462439314
10.947952167652195,15.147913656560174,0.2718122734580678
-27.954485543166506,32.152835025989376,0.25365763752656445
-14.766290994424756,-0.1255929944339699,0.15213074552061623
41.54222741396295,-18.908778522867962,0.22341387973337096
-36.894800143523014,13.599876647126225,0.30008636392333976
18.947770248996473,19.942812801999107,0.1399868092957258
7.429223983336801,-30.054354972673014,0.11527562829277364
24.623851474216124,-27.860818046757995,0.1604280830444889
-1.7929946155372423,-11.865864374687824,0.1888598693953301
30.745669016174208,12.306082783275475,0.24873174722172947
-11.793662558859126,-10.141647282247016,0.1958007542641921
-5.039805011307314,25.055354704372245,0.13419369757774408
-7.352446071148759,48.65122632561066,0.1376936298078485
15.853681188675555,-10.318830307007696,0.19968958486674357
5.902818142177706,49.56322432771673,0.26821167465006934
-42.67809062927992,-0.7762437362042139,0.15695327989312197
-10.615881051738649,-41.67014221377548,0.28485113057410977
30.77577780174047,10.354523752501626,0.16600628147897956
12.674024320691279,-36.984318903175854,0.14651249919819118
-32.75383300687494,0.3044771738302618,0.20873245979085736
-6.520067365792236,27.98889200146168,0.20742663363617642
11.034587526601221,-36.682970857300276,0.18346804902349198
17.307851683209194,-2.0299914165450748,0.17515200113364224
-43.059583837671745,6.169889069947905,0.21969644528413546
-45.9063713918957,11.984597526024737,0.16296573101725542
-8.72635779375238,4.175943387693419,0.18554708723423596
-9.359109940156523,3.2031099908344,0.18967256875281216
-37.24175499182119,13.036711637877502,0.14859863788071695
2.612628934897683,11.890610282719138,0.11319936671217506
17.41424547795705,19.530381101891507,0.21460875319336442
6.611962643412336,-43.01791736324596,0.275371542559572
-37.92714185489808,-28.613524740200074,0.10158222428497049
-11.169731845927526,-11.415217035470508,0.1808796195148332
-43.493823305153406,7.4515136101025545,0.15115767773746988
15.123392358441937,-13.23993600498817,0.26190738915765205
-6.827617488013179,33.74076808652036,0.23844474488825074
-24.419290038312504,5.78513798008051,0.2024757786977137
-23.03403345013302,-11.94657171541439,0.21699174063424956
-32.89511086233763,-23.707263593356643,0.15275119042115215
32.18664471846246,-12.004182051925724,0.14646544795932465
14.341309253982917,6.314306609080276,0.21525738754257892
-49.85532533710059,2.807664784262854,0.23327413759508037
-0.7857129168117344,-30.58932735678473,0.11200443808140084
-30.25532751353408,-31.80491584625729,0.22485897839068425
19.451312236856893,21.778382217935675,0.31994588286527925
-29.639158012370725,-1.025445021969049,0.13063810894688901
18.908169527231575,-14.227538118352454,0.3349189235515351
-38.64312196064563,-18.28146639714516,0.19511314985554448
10.573974966043856,30.43522792811685,0.26520768238654835
8.541499169708084,33.612087353524075,0.19400749372696025
7.534716527465804,5.496148066176656,0.2910533211316256
-20.528347247429604,8.335847154424647,0.14278671371856574
-5.34359339017043,30.5787133143235,0.2621394623391291
24.60099958794443,28.629145464008417,0.2012107460564571
-13.03573043164788,16.79485354563571,0.15379923880484364
34.23020401178542,-26.13983575163393,0.18456915457187517
-13.485158376480394,-8.495762427879242,0.2341075258867722
6.975672898056216,-2.5670300939389192,0.22075601397999883
1.1895019023303315,13.79495928293008,0.20956650118185896
-30.65191993674835,-2.9675841576514332,0.1587035766937487
3.900683081958288,3.9628042107194297,0.23493756384442005
-1.6652680844533185,47.81207614113168,0.17332429278058586
-12.229863705993552,5.829574195067869,0.18122710062976002
-28.848038142014275,3.2635565515273703,0.2033088044749252
5.51732074500312,-2.2008054342535313,0.14071659504327375
12.351783687401623,42.646640563283896,0.16145522553002384
19.322069229692662,12.968367863824387,0.19587587130668377
1.2846839502175977,12.265910326591921,0.2349091471056529
-10.420361983238118,-43.257747586412044,0.2183928954695763
32.28579924293527,-3.47601709549564,0.21176158616529228
32.00731433333277,0.6230258857223604,0.09004454361006348
-27.27829278549302,-27.522398828950916,0.2261605302018408
-1.2346928905099943,-5.7754526593899085,0.1667678471992121
-9.275213385523177,-5.8053015779080885,0.15685203364556458
15.583254208443886,13.953300229617533,0.20528542125699914
-2.3798225469722585,17.88081643693224,0.18082355199441702
6.240215859647604,4.83583807955594,0.22718541502212258
-5.299784032682174,-20.090350842576107,0.25578365957727484
-15.064987378209604,-34.63863891854332,0.1593112710143082
5.802466223562439,45.777535157214736,0.23272679148613976
-22.638687667677054,11.176296864000882,0.16186651645276015
-39.592388329016394,1.474177154692124,0.27146517275548826
31.80841703838509,-34.977172568206505,0.18509500012164984
47.7142034355686,-8.326148244647943,0.1654580743350574
9.814947885450348,4.197841653899505,0.2841171784769935
-0.0639697271698681,33.48468009955031,0.1729739898835117
2.4624482264601832,-30.45755719402458,0.28102415589967195
27.484913405142986,-15.393981159366565,0.23284574489680124
11.110564182733288,3.903047837806274,0.24060594559906368
-7.934529325397345,11.994864463664626,0.17578470310955893
-14.856655670041771,40.25521088124986,0.22691274881406487
-14.09630585614535,22.892735447575298,0.1726393513462959
15.041662913215124,46.14103735939156,0.18329047745675264
-19.33716207877929,-0.8925743171044375,0.196244824987869
-15.36344094969685,6.8654178616316885,0.1160679148454679
-30.2853501443018,-6.096064840440767,0.23521345324954757
29.87347147547806,44.73015086175803,0.2648072249715184
-9.307871726972827,33.18353445245663,0.17852956807866643
-9.616771687965711,-8.505378789001792,0.2230200665990914
29.65810722504742,-41.66731894807441,0.20070109030929542
-10.682451410375233,-2.3030781747553535,0.07439111650796762
29.782944145373317,14.521372735472527,0.20662459609431735
-27.167902919100094,18.042549136270253,0.17560781588461055
4.030820273240496,-15.45277174740201,0.16936326343537084
0.058158097996919116,28.138217330610004,0.25144029621966846
-14.598999287648528,7.723531328350938,0.20239125012766276
8.793000279207156,-37.453558059051375,0.28928833544366334
13.616723632520477,31.21949314078332,0.15895387681608664
-10.745339357518358,21.676924255306783,0.19612335501323527
40.45603106998868,-21.815342788056093,0.1762094247626269
-13.167606870407687,14.780858495161455,0.22686640805184544
-17.04584703115007,-5.436810715740735,0.2224885091196567
-38.0206233426494,-5.059784498050144,0.24291611974859678
28.754170291392704,-4.9839714590344695,0.26248687830337747
20.63887692163176,-7.572254105920057,0.23123737184928989
9.445289031733823,-29.49746455935988,0.14059844211672173
-2.2868726218478153,26.842280494917848,0.2054202142805654
-41.555311197085366,-43.97346940874178,0.22258772997415824
12.79276537408374,23.029330494598508,0.18568590970173166
29.47047410159153,2.2689719094997036,0.17606509393548808
-13.6943860676822,-22.66721866765212,0.251812166062362
13.829323231397739,32.405207008892894,0.3116807659468002
13.235209435898993,-25.746243939848746,0.1887087866577555
36.949638253605556,8.139586223337728,0.17945886385963927
-14.77026814029787,13.364358595662237,0.18713247751351914
-16.42538034529066,-8.404809968935197,0.13861011516068147
34.308383248316154,-13.338771528864532,0.18030660423604344
0.564013915489223,4.275943371267131,0.14186278960877385
-3.3940764560562164,-18.5125256464076,0.13370580478038657
-44.09658329335424,16.091502726126475,0.2229879517405911
21.389747275140408,23.464049586656678,0.10761569501470696
43.513818719423654,25.583522421980597,0.1814074284036758
11.795870494046437,-24.980243038278253,0.24863404493592958
24.83711867061426,18.169924851778624,0.11761549371187612
-7.503587860990348,30.540259385218476,0.13787155981970317
-5.082354502758761,-35.00569621456755,0.21929079633518395
4.1478365084535955,-20.620694292610906,0.20600578330072927
-34.03246053817427,5.059506429499462,0.2533455618836724
24.42917576422616,3.5101863147277648,0.20449336455068204
-8.842088243352471,35.14946253648965,0.1378883631950631
1.4701417903237026,-12.638670328631898,0.15198635172399055
18.131659140724167,33.07622533232749,0.22357620517118612
20.912215012460678,-7.820292171236579,0.25293173080024633
2.8999546715337163,-34.33223670691528,0.17151437293564548
-15.003142703821448,2.308839073954696,0.19581033320378988
38.086668392868795,-28.424050810806676,0.1893617958899552
-5.01135766460802,-28.140880250217982,0.27825678996382
3.5272093105254356,15.764337172255708,0.16090209420234283
1.849670151277806,11.691633830769794,0.14369405512341704
-49.92448069888043,-34.63876232197006,0.193484349498107
-26.01883717731966,-4.448665033946978,0.18603424419051826
-30.376099744631908,0.48820553941986966,0.17471637180608635
-24.88747523538966,5.471710527798507,0.20421552674165938
16.28623188257599,32.07977936720164,0.1606244322169329
-12.163478660992158,-40.94063857810292,0.18760109975810574
-49.8373323941926,-22.995976005830123,0.21715538412956312
-32.58173930561998,42.916205166984696,0.15620116493023375
4.843216031364723,29.106005994666734,0.2152243307031722
-26.319981584262823,-15.11529428043119,0.26849691760048816
-41.37152560876888,30.951142989804747,0.14169504531792948
-19.639434215044034,10.920265720051534,0.1918010064515439
27.60343352257478,29.323752022053807,0.21570476069471017
-31.949217274045434,-44.10930114682182,0.22314338070525136
-5.173998670828856,43.482363883804545,0.2548694166650045
-27.606100721199393,1.8713892220330077,0.24811119774022183
8.366183288237515,17.993573757768054,0.17441987037922468
20.24560450607222,-11.984047935279236,0.16537246079019768
-25.442960498424338,-20.43734701403456,0.22470219866508315
-0.7419264733381148,5.5508882588391,0.18964629351235693
37.15389835315438,-8.278448510780056,0.2093995372088198
5.07580258609097,-39.58088956347996,0.23040942087403687
2.8067982955691857,7.320217433114067,0.12814538439783463
35.463910065974375,-35.534999753065186,0.12028004116144625
2.574213462853841,18.753028938708525,0.23915013612215147
-20.052950798465133,-2.010184694300116,0.21511529062487564
32.38942810027083,12.883482156235326,0.16124260178063904
10.996096891442004,24.82901359614287,0.22397132586225793
-38.0076193449677,6.308629720189478,0.17054100000045772
27.811385285020997,5.620426140014499,0.19292851629366775
16.432783096797777,-40.189122352343894,0.23434343787533965
0.15069738388567977,15.634498019785415,0.1793066062762279
25.67662421941746,5.593647593305005,0.13425758371311297
-1.1670497557525286,-4.3393630735191,0.23728025664047267
10.817177483790417,39.91325213747573,0.222776361970979
-2.014620286917224,-14.46065938990318,0.14585645021446036
6.687589889005979,-22.087202671557666,0.19028926920922282
9.686012112011397,1.963128223036991,0.20158914783991136
13.054229353613742,-3.575943476555943,0.31001886677374013
12.96969283469435,20.81707530935285,0.23533413847330345
-26.10980758601858,45.95850387563619,0.2221394783196846
34.140647467496464,-1.505491320238414,0.18828880266350623
9.873388833735005,-22.64426239210603,0.15160552108713227
18.185401352807045,-0.29253881062079795,0.22076539021248154
20.703265908353924,7.115451912776718,0.14630148412567745
-7.147120631150894,-7.570652543074365,0.16736068533080872
-3.276227312348516,17.31788969574094,0.29927880741933777
3.7211468775621204,17.714849622989735,0.24819014379749577
16.393696370863335,16.373109219671115,0.2935693497760285
-3.35366485078763,31.675681370062552,0.1778762808349387
-16.65902108775496,-39.159360196272814,0.15276613896642816
-48.31944395426363,27.585897051473722,0.21853638515755042
-5.913633378639324,0.5967523421118089,0.21196076193429897
42.09896005627072,30.81221455226283,0.18568474455926817
10.388362334862853,-6.391101652057583,0.15605557421429875
-33.92072390682993,7.885552989404579,0.15699339734500606
-38.95998184453303,1.267812221973398,0.23604291534304636
-8.859049355090736,18.05284968391845,0.23309750824113679
-4.792421019884233,30.212519133270316,0.20823874468065523
7.0814759456686565,-7.469852237470294,0.1497005380429345
-15.072426882639768,26.54398718746163,0.17155654992310654
6.806629495374156,0.453247575928335,0.25663134488874373
-22.363393859394787,-31.92852290624395,0.14663058321955602
28.34467860334891,-47.623954902594036,0.1396922631780389
-13.710825891499912,0.7732195842479291,0.14319877154953306
4.172854157207735,-30.52696635910874,0.20402081746885298
-11.30752608485968,-12.98024414231081,0.25058732463248135
-15.14912389987556,28.295920135053965,0.1782457988749564
-26.948759965946422,-9.614477326931194,0.21674721638374525
-41.945561926619376,5.1119467914436365,0.11149528838014906
-14.506735724905115,25.154051791313936,0.2202205931959087
5.644965619841204,-45.748401438217606,0.1564382130120333
25.07981300396109,-26.95449550148591,0.22274469548251002
41.11073311229735,-15.464112307291847,0.1950618919172442
5.82969367876515,-21.705913255871756,0.1541789751469612
-2.7460190056039337,11.608426565344047,0.2274481156970205
-8.247330782701368,-10.959537442315014,0.1417518066190835
6.413857852462825,5.874284784859346,0.18399295979314012
17.793873849388156,33.479557569406374,0.19000664005518708
4.133415665681005,-21.801174796622746,0.19812641837376815
-6.871385896283563,14.084391889896771,0.16798711070649636
45.4187609267429,13.89435170996007,0.2504684493058145
-21.45279193953281,-0.33183694478641584,0.2742261363556735
34.79309333484648,30.081693352465145,0.09147117565224604
15.853279909422453,22.367425577358368,0.13883636804585373
-29.268278090263745,15.719912538014269,0.28309848101006757
-7.268564180341137,3.8445268939833617,0.26998126130431316
1.9654829755438235,17.67418874132966,0.1721922850057058
-40.94182992747189,10.04254509299932,0.16506246515366027
-19.63954814913263,-17.895100599860406,0.28074502091536446
-28.123566302702486,3.481409908523678,0.15150717341874448
15.397714303442998,-16.753707722885185,0.18715797504011858
-37.45723804173794,21.68348321099588,0.18352204898320806
-29.047291538695568,29.024121651101552,0.22088605059012648
25.702648978123776,-13.809652194762071,0.14484204501120818
-11.768389475036708,-16.40237048977396,0.3315236764314764
10.250734112678037,-40.245627767967676,0.1638599487387016
-13.177847257159215,17.93845304229165,0.21106267279092644
21.290076636742032,-13.402180348358685,0.18565307889108373
22.734017528338548,3.9180227055391446,0.20042752128910457
-29.00455473442986,47.7627763967361,0.19135324815667293
19.51199810461289,-34.211432911263174,0.24029543604156958
5.931931948254976,16.768615248630383,0.20184437710312025
6.525034004238929,-14.662893957549873,0.20055649318951604
-17.790201252611027,-18.276237992486376,0.26118607595148297
-0.30230063416604835,20.373983769474023,0.13230284559079547
17.95732090217654,39.0718698938822,0.11231376893250071
32.64621902844889,-4.597607119330557,0.13871722429748978
7.56804674435656,12.390666782403029,0.1656393939888377
10.07269380162047,-15.010440889778687,0.15107128791671207
-42.675109447967344,47.113247235446885,0.2620642603749775
30.486692576118646,33.435780630093426,0.19110155400668777
8.30148861435322,40.33044077124183,0.24294187152607027
-23.013614505441566,32.69361097697612,0.2684936707303998
33.01618700269899,-44.65544975354361,0.1757325142232643
10.731449150376916,-37.95133821420503,0.15519438668969596
3.483853237499494,-9.60394242223071,0.0643050069227987
13.29157968050916,24.598511477796535,0.13759874751923826
5.651662864733039,8.516744433395248,0.1469833612890045
-41.034916418242,-0.09026099955446448,0.21858172979768295
-1.95100506028391,-47.7013287845029,0.17616109076173775
-5.341472823578997,-0.5261686055113157,0.2897508684233484
18.48817165522534,-13.338648114989091,0.2048406505547088
20.474937780363827,-43.05001824729714,0.17606890751737042
-4.705630810347987,-17.7703589049606,0.21128953930256883
-31.056976456535924,12.37287875655182,0.21474631056536247
-31.693976201198055,-35.69756512838043,0.23043163492430294
8.217766496635889,-9.97700819359315,0.23615130360827835
-19.727598659181254,15.119604778709592,0.2109136402907953
16.85655102186185,33.27423499413993,0.17720237886803364
-1.3645375667797963,-15.299861163415015,0.21991359437466776
6.088496492666891,-32.836913438722185,0.1993571551604243
24.579365277497793,15.724379360432856,0.10380028743606456
5.657120545296658,-19.325495349618194,0.22183307445665332
30.137213929655633,-3.8679335095892164,0.20940325869971596
-44.89229233968943,35.543367252505746,0.23996388846674693
4.406248548836049,-46.320978221938205,0.2386870177323518
4.2220516914291295,11.522718772213619,0.21746107122131703
-3.202799859687369,7.211293530358201,0.1860820255168649
38.30938696649777,15.715634668742881,0.15212294395174958
33.147101794227815,15.68808920733113,0.23578271294388406
-46.91731479139315,37.41177013869573,0.16230581290529067
-5.656630028338612,41.55494124606584,0.24338545799582578
-25.247089483018893,-19.621157067555416,0.14885226299614393
-13.667406324550369,9.633026380931248,0.24180275400728346
-25.581763153767557,-13.387162278820302,0.1909426996428583
33.99177049701218,-11.180068542382248,0.22665607224360057
41.99114781992358,-29.63264066603451,0.0902055540852279
-46.83882129459367,1.571760360939994,0.24926382061035487
15.727627193584803,-49.44663417894451,0.1862629182875729
5.0439844655911,-19.995543931557698,0.1677345987002455
19.014800118515225,17.41320057957927,0.19970305800448307
-5.59222255890318,17.302353049365458,0.2277449659243037
14.414179299686609,0.03625985162537882,0.17294578066852673
-3.37940357913087,0.9995605031741088,0.2107080853561725
-11.093329013859046,4.770626124985233,0.20515840832735924
43.88934666121981,-1.7491471856370986,0.18374581939193763
-3.4849664976163206,-36.769171137194185,0.24829903800958164
-3.064274055370466,5.546821455427,0.24562385161251554
33.93559561025229,-12.452029839326201,0.2810013663953469
9.736839602187061,-47.875203984557395,0.2075418265142886
-19.103940878200113,13.897731974775088,0.16414129460006857
-18.679311890910636,-42.60655899521884,0.3131995066245356
-41.405405580208296,-38.71481915432108,0.1964386332246265
-1.9862048958374887,-21.5636991110998,0.23587436952207186
-4.925793860075093,4.79530711862514,0.14552971144462698
-39.65367929175308,-4.659305589469419,0.15957091410437946
-35.691544500400454,19.272163799641,0.2544665323208631
-14.43462531255951,35.34086105309538,0.18814659485181856
35.56688875715913,6.117560941955939,0.19434212297213943
-25.62167836225609,-33.568899982534916,0.18715437064733104
-18.802706865962744,7.26172562417953,0.14234629561607182
18.579882354204504,-37.46526905989196,0.29326975837155833
-31.467325634320193,24.056476414637988,0.29680819509240397
1.9973829756351196,9.1264200743126,0.16657439658149453
19.961490969910265,10.85860273705099,0.21851209501711455
34.60284809839696,-0.16717777365448644,0.2175590080716793
-32.066072142088025,8.550784551801337,0.23462038186488085
-33.61372450451978,14.04375864108486,0.14953825506885557
-0.6721659921574191,-19.512804274693757,0.27069843531776927
18.53589815187025,-3.2144728519658488,0.2610273205832322
9.873814669375255,-16.18807642527475,0.2342932008589126
-16.279357567576234,3.214112717550309,0.19000744884317236
-2.0409562904049743,11.612959018246972,0.17353646272550488
19.224768682044147,24.735267034581337,0.14301585686210114
32.71713402145819,19.54112671527004,0.15758694941564402
-5.4294441088846375,6.769850486119012,0.18275508290060152
21.164669674936036,1.6435659363111077,0.19948500224400126
13.166643451956109,6.431181630514321,0.2124255413910144
-49.62176492225081,-5.73672462145575,0.2613372472763857
49.728850867702754,-0.24453772090484918,0.15363669453725276
16.513822173256518,3.404905840018192,0.3213475698072356
-35.240220528873316,27.634033122437803,0.32470736143606294
-2.7974010145471526,-15.869299005647807,0.22832582691307282
32.22086797091382,1.0864003439517114,0.17520086196364215
-18.607604650979024,-0.32533342761921835,0.2457825463267465
-10.193370034617558,29.376218320426688,0.12447366131351933
8.597413513034304,-10.11087978970945,0.15982300948630368
8.112041283195925,10.59159700012676,0.16158778873927923
7.1340274196098425,-26.353738488206517,0.16054611553747694
17.829106510619123,4.621760901764333,0.2536047832143291
-7.302658211851035,-16.475741349025128,0.1356663762740291
-30.2235797757343,-12.962840003083134,0.3255997130280315
-2.8285993892382013,35.171540091474604,0.14660413868588615
-15.298013877208813,26.508365266646255,0.20264917115159084
12.66796327539269,-18.591954244553115,0.20074864312867252
39.94088453351905,-2.9710474727091594,0.2590879003190989
-32.318701963230666,12.291213563239989,0.18438030912165806
1.3886714608826223,1.7155253813208184,0.24686432876158684
25.95121669909463,-30.646456275381734,0.28066241845556156
-24.220417287898282,9.83596445065283,0.27736391412970873
3.406897558901297,2.713923506789553,0.23535191655261395
3.2457576121241933,-35.31800151636302,0.2713341903320941
4.38638584126567,-45.44979778340438,0.19970264100319265
-43.7146839826963,-13.516432474041412,0.18944376665942841
-26.023941454331567,-11.025298547046383,0.15883279757545052
-35.3301341287883,-13.21925696426093,0.15106274833077926
-0.20724495102958668,9.445021036186581,0.1962209651027284
-3.5727037977912506,30.523958841421223,0.1568855761082803
-3.6024167960786335,-13.865740197079926,0.1779463415630686
-26.98055381702204,10.090498954509407,0.2220131155910718
39.394259550779836,10.03489962474282,0.16474337676260858
43.335649858276966,13.061686645383357,0.26585962291833004
-11.42168617849334,4.874014042687785,0.18545388161541412
-10.474271394675013,1.5007104464606738,0.10775417223024174
-5.937391662470261,2.4982385263888416,0.18107754982596627
20.60662878672702,-18.70281346506666,0.15851071095910813
-6.326913308974859,5.395930752053735,0.09544567807364035
-20.79914182677033,-46.91181673093404,0.19106871002036963
2.412481062245944,-25.942670092604487,0.19017770927485156
1.3528595631508937,16.219751783131052,0.2074343391046794
3.037428766107214,7.972995269223674,0.1885335382909911
4.0134541864746724,-30.413201249090633,0.14316724600064612
13.994913905306428,-7.559535301943361,0.23241831279663264
-11.419538222229281,-20.43701955990779,0.14082564190845132
-20.702588461661705,15.686404236528464,0.183919276140621
1.662399338222836,27.73952224080693,0.25940873252682906
-2.584020439345093,-14.449578105789183,0.28204402472818746
-2.164213731514691,34.19182273638174,0.214732135064817
1.038886304593533,-27.559441661561678,0.1466234255583141
23.48100699275267,-2.29671675748787,0.18018942022652587
21.02560865079251,3.532434042021262,0.1529455483078155
20.5747049836169,25.213125387320325,0.2610611596321726
-22.690198518376185,-18.041302844627836,0.3058407215163696
3.5300496594668274,7.11365244092875,0.1678675947704451
-3.4370907121758805,-7.692699616368652,0.2255769736599459
10.812360177608008,0.9053237683670432,0.12999961549572403
3.2402280009065323,-12.346007405495985,0.21854815853313014
-3.1591420099184386,-27.107231927200015,0.27046958631727286
-13.912028067958781,31.866738821232797,0.2270704557168535
1.2766446826860383,-28.98282013264945,0.1813733132822836
39.98316262342323,12.677149197651374,0.10160264247948997
23.77211452088034,3.186501953153532,0.15249833013526787
28.916349262087053,37.35461754454532,0.17286634217396166
1.0642753584948854,-18.349816922107372,0.29897480367155893
-29.192455324230675,-8.719362203799394,0.12434058090339392
37.07956203607503,-38.74391680927338,0.30245208325172196
0.8398711242703752,-25.867009829854933,0.17002855207269238
21.338075727572324,-28.09460046930164,0.20569613549351623
33.122445127468545,-7.629625014480541,0.23227503408043845
12.70461773026153,-2.97966538176604,0.2712931101639641
18.27549149383982,31.675716797492708,0.13432288084558702
3.897712446383353,-18.777662862226737,0.2485588093305688
-37.901891077704256,-29.035500946857244,0.1904067379143195
-3.9831552022860595,-1.9679617219024206,0.24390834433229955
3.6083400077820302,10.991435865657992,0.29975597606241383
12.585285988424666,-19.82516859647648,0.19491459479640744
36.3084610561017,-7.612473928577604,0.10118591644928547
-19.263642850890992,18.97291013722522,0.1993050496651327
10.783252316246093,-2.839711462240969,0.18869609169504142
3.1707865723690234,41.05710483293214,0.18373796171044657
17.160953269835698,5.755639105841743,0.16921409636657975
14.568331738212395,-40.88495535947482,0.15673315272731067
4.63550428954406,-37.99214444730991,0.19139555427433907
21.950787203520473,-33.03491235905353,0.16849241439460366
30.402597551375933,-0.5762597183233336,0.24751509119526768
-13.797635949603249,0.940653654395549,0.19844491740113845
19.953897829128135,-11.817402772303955,0.14186694505136044
32.19313316505712,-3.098508753284353,0.17252161569605814
17.7501467515695,-6.080357030975636,0.17816169086689201
9.368196299494148,-44.257701553089426,0.17108277083072132
40.890025702202045,1.7645501516897315,0.17668720186725212
-35.28061916664904,-21.853789780741415,0.2011648506449264
42.15269346345951,9.392837950134286,0.22130975305956815
