-44.544447654350286,22.711058609603533,37.96134301705906
-40.56017611552824,-29.238196139251343,6.633225237995322
42.78428422816107,-25.874795131245538,91.21980988135692
-0.727826224062562,-49.99470240923099,15.577222822158742
15.355574347452919,47.58367720615806,86.99388154196802
-8.346584497952742,-49.29842317172564,84.57337814273188
-44.961742709306975,-21.873310049969145,12.455051802154005
-28.319374404073354,41.206953701552784,10.515124936360564
-41.627593674772776,-27.697354473812442,13.663112807660493
-9.444704482846006,49.09987329140177,36.805801393625
39.20665524347407,31.029633974949938,96.16847803656624
29.564907782931225,-40.32265154707429,83.36169810214729
-1.9503370442143615,-49.961947374116285,35.80932077276275
4.114919119601714,-49.83038671974297,56.6170273332631
11.996105746725938,48.53960699174818,15.736445857822979
45.951560663227134,-19.709238255542914,97.46528616323027
-6.804079629142461,49.53488165323794,59.71241760838685
-47.19642819655749,-16.507488164078545,47.93485848794889
-26.264897057604003,42.545918518154764,47.04799404974409
10.034241972284331,-48.982792775031186,89.67939941148246
-28.624774492814176,40.99539346360192,70.10002486011572
7.695502075226257,-49.404243216652844,62.90016307104737
-27.42243746029117,41.80920859973816,3.3736240282957186
-49.569581820755126,-6.546492046543925,20.96429758991276
-49.635913901347,-6.022960333429675,97.39136606236639
-33.958086291649416,-36.699432903096636,11.62960381726551
42.89668545457474,-25.68802010687621,3.3311243713697647
49.60730821794371,-6.254196300879468,22.96762468592134
28.80300515335566,-40.870366943982376,56.007001343613396
47.384591709041054,-15.959337973972417,24.873776561172534
-19.557524586862755,-46.01633657772269,81.17467485203974
21.276603827251954,45.24716708898103,23.081753223230763
24.97137815561833,-43.317782411027316,34.58338857512988
30.35103173641614,-39.734303473636736,30.162202059357668
-45.09966185655514,-21.5875079716114,99.77548192877391
36.67038348089189,-33.98945388446733,36.067440920774644
-41.4350611936527,-27.984561884693782,54.94135276515082
-16.63378934929699,-47.15206307133564,60.571283343424454
-24.0781125536635,43.820594426058534,4.269872545029996
-43.50074413722142,24.65127297946288,21.382817078363704
49.97869158183209,1.4595847930511294,25.914671250501986
49.73147062797693,5.175019727369889,21.139152237598648
5.9050860283167355,49.65007511573551,41.50876182185832
-49.05218591482646,-9.689326962039265,47.350660834632805
-34.554174644173216,36.13874672231976,73.20399345846664
3.297617702240424,-49.89113866700048,38.40440180737448
8.403997021856382,49.28866841431841,85.79215055999926
-3.6350498420198196,-49.867689064624116,76.73981018787832
-37.13373708791432,33.48261593552177,90.83665342817565
42.9759831469862,25.555133976364864,3.4500449736823757
45.03640937004706,-21.71915815710953,39.84046725193825
47.15380899214854,16.62883933207519,8.765272188949547
1.154903666953828,-49.98666019569677,23.85351438219352
34.57032008392961,-36.123302303286906,79.91634499794986
-35.76205780880966,34.9438867511809,40.69397669316117
9.71822042753856,49.04646971721586,21.821061593533187
-18.766605406068074,46.34451986516784,51.73782849441343
36.73609380838626,-33.91842289525627,38.02998086864545
-49.473337761868194,-7.238014278799604,91.50807313069828
-49.99460199860242,0.7346910924590352,92.03854745673475
-44.73248300874801,-22.338419010128497,76.61802451591998
-36.07652535746848,34.619132255617465,74.5256127960528
19.81764471503391,45.904912133111516,63.135480200212434
-2.2145875458331203,49.9509319432765,84.6551954301721
1.4865416257337554,-49.97789705454763,89.65869100053531
-10.589813642518267,48.86569192200939,79.46785016885326
34.05408433948372,-36.61037202486926,51.47533466461777
-26.17055635245249,42.60401366307063,84.22461794208823
35.99950460829956,34.6992171087046,0.7961326153004267
-7.314758803231356,49.46204912506708,52.28243025111306
-43.86759464579551,-23.99237670578246,82.15095199358726
-33.50688676833515,37.111838260775585,29.53883367701876
-49.71876147424773,-5.295730116505205,42.25572719330908
-1.5229878805550041,49.976799696616055,97.66465654130756
-49.339221851737335,-8.101924898753673,40.06257988916776
19.96645906657993,45.84038080494738,22.34777685340613
34.68643545670235,-36.011820216534765,23.553902315132092
-13.003759549467137,48.27941836413983,47.62889552745666
-14.158935056771854,47.95335815204309,87.88064836744127
-47.51325259768558,15.572116991229045,37.899157163129416
-10.33037603230336,48.92119511041418,5.900681262278196
-12.720222950976149,48.35489559576631,32.65304516958114
-40.27954638635082,29.623607864502468,16.71320092854841
-40.11688042000357,29.84352367544983,20.951610122602695
30.450685898507402,39.65798442067426,26.36331305355806
34.66362706585132,-36.03377524822482,30.68003298459363
11.46477461652778,48.667843007392676,97.19127682329807
-49.655528182810784,5.859054606852908,38.2890243696091
26.797799362545394,42.21229618635738,65.90847180585195
-40.145816489356896,-29.804587204034217,79.73356505814009
48.70155721946316,-11.320703352678919,49.465658552450044
-39.74028114640117,30.343204418864396,96.88018007488087
10.7124947646901,-48.83894404997397,35.775511996423404
-34.80343709482786,35.898757170497696,17.40754821029258
-32.46901141330218,38.02319420883592,96.55374604461129
-34.135278153668615,-36.53467921539307,80.24083673853106
-23.447726079318326,44.16111572083811,65.07094937809993
14.99567080785873,-47.69832132289703,3.571656907461096
49.27463717035016,-8.485878371173284,44.19018230002894
-0.6040969736723033,49.996350535278076,3.397473392486805
39.64460673052132,-30.468100649405507,66.90561597325372
9.139834431600208,-49.15753682359334,87.34083197201977
-33.93817465906832,36.71784717015109,37.19588045393022
-49.98659508546423,1.1577183430538474,7.511116424641894
-41.54143233328178,-27.826415502169343,43.52602275471899
34.5004125722418,-36.190075053045966,40.110020550422895
-23.90043645387737,-43.91775423805468,67.96328552417611
28.15488908365305,-41.31951380022754,7.370222819636996
33.86374983850446,-36.78649815999327,68.70645935839896
-38.48742443214191,-31.917364561946005,68.56505591202463
-37.967288927923335,-32.53436600678719,18.568111631087437
-10.800017338044391,-48.81966433209,62.22087237802306
26.438464592913657,-42.438279771560616,48.32977762305044
34.44253069086843,-36.245166293018805,3.4496326630768848
-49.83619039328308,-4.044023625603475,80.52593768062432
19.857561701955646,-45.88765894282497,28.457755843799404
-16.66580387315663,-47.14075711379143,88.39587501289063
-2.458694682311568,49.939511616145914,76.48402350367954
-24.224782851814027,43.739683306837705,22.729571434216943
30.666517487869292,-39.491324429122486,74.78701585264757
-31.497901457960626,38.83145894432247,45.68351071773908
10.152552619094086,-48.95840760601315,61.87421068614197
-41.91238198161899,27.264486729569292,92.84472271471972
-43.82479497686458,-24.070466244669728,44.39414642134156
-17.953158877812612,-46.66566281869377,35.74543644069013
47.308191098139226,-16.18440777482886,6.080994784166149
9.672739838864574,-49.05545947200619,57.91915997181071
-18.174924080470383,46.57973952985501,2.4518519887875345
-49.88045128068809,-3.4555144385318184,33.68067680656171
40.02918983137522,29.961040726979537,60.73984961549925
2.910018886072261,-49.915246068538046,32.08601126511093
18.379470491966206,46.49940929124738,4.20647614285985
-10.2995027040035,48.92770425893927,26.729008391871712
48.20974300783277,13.259739029057835,9.34487124736455
45.487544803810884,-20.757727903633803,45.73512865406582
-47.834717028436,-14.554719056356081,60.975419101382734
23.42788710562841,-44.17164368422269,69.44852128036352
12.514472868782878,48.408552641206875,0.7655012594826704
49.56633008039331,-6.5710670641455,6.208189607975656
16.071633318000114,-47.346621869904816,3.5887753814599854
16.85772687346101,47.07246588675582,95.02563454988673
49.999677410287276,0.17960753661255438,12.905980934228612
10.391411768921879,-48.908266800702634,53.23461276930323
-15.182025019639065,-47.639333709688394,76.80691015774642
-27.44702681065126,-41.79307023006793,91.16009716584924
0.9366987038421145,49.991225185408496,59.083482988546265
17.674679018196933,-46.771847532503024,40.145643380474674
18.705460752818656,-46.36923266590424,52.89486067561836
49.87230813793838,-3.5711176114103056,76.5442522592146
-45.667894787053626,20.357882643305523,1.6025868240139185
13.897212823350639,48.02986025112397,36.14770319095831
-49.650369994101155,5.90260615735623,17.97270088439874
37.77755321969172,32.75448782584395,10.201994715924023
12.625209829968401,48.37978996181432,60.240539614045595
49.30899617376338,-8.28389379071148,73.35045040114241
-28.73398515341497,40.91892101709585,65.92935191602035
21.77531000038164,-45.009286534972745,71.01997166937636
37.74851796993018,32.787945819673716,28.14946535027839
0.20214145856837906,-49.99959138663763,11.602244790873485
-30.284577347347252,39.78497674867414,38.31975618680129
-12.677927675815843,48.36600200395711,86.10193666060383
19.165534551349786,46.180973196339394,0.7124273731326403
-49.31114283411379,-8.27110587488933,39.149691354050844
-48.62489526175045,-11.645581169860028,87.70805743751724
32.2394847886763,38.21800126328834,21.944850351475043
12.233525481843943,-48.4803140902065,43.87827863972623
-49.7765988606274,-4.721250455990129,60.88322690657015
5.227400688683266,49.725992016650146,8.378202389288091
-45.28303695543171,21.200154812949027,4.520233566799181
44.47510538057606,-22.846553380907476,57.19271347318973
2.6105809011326957,49.93180216413825,43.85338742277449
41.41347528591689,-28.016496296695472,66.7084102356437
46.31220381314489,-18.846213889525067,24.806088809790538
-2.21088172707121,-49.951096103978564,4.635012072462974
47.59708817805562,15.313954321807225,93.81958632742318
47.1147603565007,16.73915638703188,83.757267125126
-23.895785945053188,43.92028476761277,99.70238263773422
-5.18424477065798,-49.73050981196458,25.32920838252576
34.286798019503784,36.39251958259763,64.04086400014936
-28.097989102483744,41.358227819826915,55.00627885011693
-3.0515702011660513,49.90679231635064,45.27873069573115
-42.80420549371229,-25.841826407048917,55.74397311095305
38.27924093236637,-32.16674857118523,1.3994776225077499
9.472798657291346,49.09446084436023,71.19127374301775
-37.26060121253688,-33.34137965472178,10.583037249385463
-48.41556307158733,12.48732367087316,89.64357319046461
9.882094071737399,49.0137145782416,67.76721575565725
-23.667151449690888,44.04390925266959,45.36170703622345
-22.688055468671838,-44.55616836141175,97.12356372315435
-4.399702150354422,49.80605004402745,48.43877386834763
-28.241571788937588,-41.26031535131893,67.99685406942757
34.14419246807932,-36.52634830780043,5.229994752287603
-25.764083667275738,42.851044243817626,86.5468839049391
-45.038588902941555,21.714638141857893,33.07857335821086
47.14011299082536,-16.66762572210626,23.97676376598853
36.81857102413746,-33.82887564996131,56.252679832192
38.176509108789766,32.28860715897316,91.48195952990092
37.425025851479695,33.15671033163689,61.34781255960975
-18.77254790489034,46.342113084737484,4.8746528583007205
11.89854330632171,-48.56361464293599,83.34094758887923
48.78530046917673,-10.954198196679897,38.47696811829551
-47.582167007905355,-15.360253345300123,95.34914129962063
-1.3292772330576152,49.98232709706176,66.4916409687232
10.627821446748746,-48.85743967192742,86.24993381695268
-1.6538028012395796,49.97264187827788,48.75983718284809
10.601721193961533,48.86310988594061,2.1624955934022916
-48.54608018989286,11.969882965029003,73.2810390610153
21.172015223072275,-45.29620040791497,49.94179922838229
-49.95291967924038,2.169289173752296,73.46000873325978
-19.86215953146756,-45.88566899094457,23.731846556455615
-31.290084150622782,38.99911068020584,52.30277462037187
-31.27738081993997,-39.009299520043314,0.02760365133173126
-4.043772312978176,-49.83621078574084,83.13483123580153
-42.017158003622214,-27.102738483382932,3.9100697088923164
6.8102798215856115,-49.53402960341208,34.166013295979404
37.6632809780801,-32.88582165563436,88.58184541084626
4.184267042350455,-49.824611481860046,71.2385812019299
7.350079131227331,49.45681284479112,42.437355866398065
-33.96800591117849,36.69025176280674,86.41177148618485
-33.827026527729366,36.820269910638814,12.712285811809387
24.07092858437374,43.824541036797854,35.79556853507309
24.721711262086593,-43.46075232061706,55.97924403153082
43.64078452717653,-24.402498352679988,26.916323278512323
27.015383398689252,42.07337709076638,90.62589694477477
-47.16601628188033,-16.594182959621715,8.303678306882812
-44.07031331413473,23.617948352767627,2.0379911317689126
49.73972162740603,-5.095104751441068,24.366395564692777
-22.98601975507191,44.403185649449114,72.45242533108964
9.228662026860498,-49.140938098432585,98.01934289512391
-21.192035070938907,45.28683748675873,89.13557882342407
38.34996682893315,-32.082394614799675,21.625236463843443
-46.52884386929224,-18.30482690950739,23.77660651335215
47.13328370525458,-16.68692803244455,94.51787380734709
4.845954428714165,-49.764613187232,96.8689028440931
44.37638585022409,-23.037716442217768,18.64065771546082
-36.36174382941503,34.31943451870963,92.25747038642582
-47.391130897581455,15.939909417819809,29.536663554047493
43.042967921939265,25.442148346216896,76.10358914133161
18.990471815853915,-46.25323751059225,96.34925903693615
37.131723992289736,33.48484841477432,82.79378185674149
9.025060023542098,49.17873820637799,17.627609168929137
-7.745374689428441,-49.396448970754584,40.020148153309606
36.90448984600269,33.73512456189074,44.812228200932694
22.743321831793573,44.527983471694085,56.63760831094089
17.177395778134304,46.95675749326537,88.73868298486374
35.52084689201979,-35.18905278738955,82.17350621803268
45.21738731248492,21.339819226805268,41.65885754676357
3.8538230111998613,49.85125924385809,51.97271808616066
-15.770574768718499,47.447749909392535,25.988381548581106
49.84445970451218,-3.9407913881936105,38.335715576734664
-41.42720088804296,27.996196644932542,25.258511703304865
39.53522904949382,30.60989487084298,5.279625706342673
-44.392695810488206,-23.006272159510388,15.440422426775513
-0.043127640556194315,-49.999981400062744,75.70181401546606
-29.799976642632224,-40.14923899775155,57.19412059123473
4.348323501723336,49.81056195953184,59.42892579130255
47.52829121852049,-15.526156441550754,56.76076958989872
-34.20304658753027,-36.47124352323669,64.43649756203197
25.037629603222932,-43.27952291617613,90.69893819231379
-31.13999190067334,-39.119060628113225,81.52343429010375
9.05602088793026,49.173046333101745,22.859924876691927
8.303927028673737,49.3056264122307,35.07522813442492
39.80800078122928,-30.254306698413185,61.17728707014827
33.892650448458845,36.75987276336226,68.25763804990719
6.341333023975905,-49.59624477194854,13.202649725454096
-40.22694891032848,29.694992530152657,33.919492766621865
48.00448087072257,13.984627858203128,81.09066122121249
-28.52331400047239,41.06605116675398,98.1835886568274
10.206165411330774,48.94725924499303,53.43217400425042
-43.59000032049779,-24.493098457708495,5.09419943606928
49.811438077906125,4.338275764739225,80.91847679460253
19.343689326784062,46.10663383103195,29.120165799181052
-27.309944624153747,41.8827759899658,36.07888604374676
-23.27709324396269,44.251292976724045,28.023555522366294
-41.51607871464114,27.864228109885282,98.50422340622379
42.4958786574814,26.345783289335266,98.1050353408507
-28.144488489923443,41.32659879110023,91.93642862597167
-48.492864551372215,-12.183681200781136,27.259792658765335
11.379829472338297,-48.68777547989331,83.85302560310308
-25.934976176926742,-42.74783047947863,88.34352954682075
48.56632458601792,11.887477285175008,98.7416983516268
9.247382335350144,-49.13741873505215,14.3988785951637
43.65586957795898,-24.375501049049962,16.655710734188432
14.034821891048791,47.98982990683065,35.186986181151624
43.98617848102088,23.774273966533148,60.029035229300796
34.01627005512478,-36.6455095685245,13.296425754497655
-37.13584983883356,33.480272650437094,76.03001641361583
40.946988939571874,-28.693973178745708,26.530875138502942
-35.62600353373981,35.08258645273975,19.751343296071145
19.979741276004106,45.83459325164714,44.24874604906057
35.61375059700519,-35.09502483849117,42.98438652204483
-49.98573043095543,-1.1944677826783834,92.20508115321576
-32.31942133662557,-38.150426006345874,82.20319746911865
-4.455104151260585,-49.80112495718767,74.00731322842712
14.980956500755788,47.702944797176436,33.42133070129194
-49.95918449779869,2.0198723511428978,59.43418473917041
-29.614368454964595,-40.28633988107629,26.173833783263568
-3.9609103183582586,49.842864980355245,25.880780903488432
-23.97613007493029,43.87647646096964,50.133361814529195
-31.82593936762367,-38.56305982891325,94.30128864465372
2.962657180283843,-49.91214944712472,50.917249204369256
9.147085517864314,-49.156188079720714,66.03908194010127
-13.36908492116641,-48.17953474630739,55.04882661760472
19.33975228597124,46.1082853890412,50.73421177362438
47.3631884868222,-16.022745593741178,6.753351862393064
-46.42139999856662,18.57561902529978,48.68947995050959
-49.699050273214986,5.477627400658889,91.58104118125475
17.457890652747523,-46.85319683817435,31.878633670651613
-3.991171625870142,49.84045093147582,87.80734658594872
-16.446602330804183,47.21767965256644,5.951063227251197
24.83276740996107,-43.39739234980341,30.91704119835128
49.74897546932115,5.003942421019829,86.25076155839538
35.07723794868226,-35.631269664320484,82.5915121715882
3.954259025781642,49.84339309835381,17.284978236563898
42.61042152889527,-26.160121886754617,27.13552119937702
45.460145723953666,20.817664392455203,74.85283314831712
-48.811834257522605,10.835351236399417,73.01517907190971
-14.619756321071224,-47.81487974587511,29.673517320044184
-42.50490662043887,-26.331215566087568,94.02257885173827
-48.94611930498843,-10.211630867879963,57.60348886161526
18.530658610732996,46.43936575204777,68.924629684932
-49.075576773809864,-9.57014964971259,62.80314628683781
23.320583171758607,44.22838907906424,49.70460178883885
49.03955213240214,9.75306755095095,68.7056846609297
49.25256244259026,8.613076850855775,66.2278563115858
19.372855431793663,-46.09438656082563,76.33445046458405
22.864237174284625,44.466016894231274,32.153322683340534
48.295958619582954,12.942193825450587,9.530585528478042
22.56539548506099,-44.61841465810713,45.84449745565771
9.292697914663304,-49.128868961811165,13.272484035415122
11.91692259961176,-48.55910785583754,98.14801345379388
-4.580805125023682,-49.789720067565725,70.25037463309171
33.346772314481,37.25577507187528,85.54876677810537
-26.45499647673162,-42.42797616450869,9.700458301100445
49.28245825128524,-8.440338186964299,54.826368462434374
-34.412474820565926,36.273703653251566,56.088180986891764
-45.53236296619323,-20.65923335254325,80.03717839813294
-48.17908388544087,-13.370709628125649,87.40211253951985
18.69014321547087,-46.37540885625903,80.86116251062528
-46.786852658071176,17.634920423748397,23.196736638643266
-31.94403217387688,-38.46529355762567,8.600558465001019
-0.07157096344325044,-49.99994877594568,75.36880699764325
-29.095787833519022,40.66245357017757,72.06217888834716
4.374463517537059,49.808273097285124,46.60996932901188
40.7563034414184,28.964180115981648,19.90533026676723
-47.67992799137725,-15.054051505726965,20.925132391220014
-12.768272804398329,48.34223008501431,40.27148013358136
-18.498641606301238,-46.45212867804468,33.92638173152803
-36.6419217257231,-34.02013480640518,4.77027013152459
-14.724760394682319,-47.78264780565425,64.03829171101017
49.884049838434045,3.4031708327129677,0.011360185913245058
26.801650757853352,-42.209850943281694,85.98092070067047
-49.05325692929085,9.683903377718057,83.08856259461156
24.578350335536843,-43.54198772200938,85.66879909220745
42.563220381084314,26.236849482955243,64.47245147543794
21.519488626766638,45.1321571525499,81.38033372687633
43.45551931308814,-24.73090862119351,68.18611697114171
39.832669883590796,-30.2218200964945,35.54249115083606
-32.168136550311935,-38.2780745451033,48.68960308832373
-43.80282888976629,24.11041644712625,70.7980273981035
48.82742573598902,-10.764873245722749,69.34344842879054
-28.315874952490482,41.20935847201363,9.588111956276846
-40.82966916135279,-28.860667285675795,43.76445153035265
-25.144474441889177,-43.21753585110079,36.12834733128085
-40.25880960173931,29.65178324234316,25.326841990476012
43.81759812557943,24.083564821371816,86.79898504998947
38.49097091321356,31.91308756855325,38.951843176698695
29.016801113340275,40.71885623576447,20.991743292519192
25.61596552244495,42.939752099341604,13.549226249198632
-47.32117361073867,16.146409139568146,66.71420017730023
8.582790569531214,-49.25784918202952,50.638665536821605
-36.30408355683733,34.38042345722596,92.8523338093135
-38.24502099250278,32.207427237875144,52.60410047244876
49.28862175219118,8.404270686349088,54.90417074828555
48.893905416664076,-10.458776845611895,36.090162649222826
-35.20237652093482,-35.50764266011385,40.06701182645161
-47.15052484640612,-16.63814913710173,86.73999806489658
-44.6226447149698,-22.55702947290662,89.4343370445215
-39.59323634061354,-30.534826609566984,78.3533086349088
3.81651476671859,49.85412936794122,40.40527113371115
48.92973236284396,-10.289863502518429,50.34125515919613
-48.54636757528507,11.968717360072928,87.97887126027527
-33.381072044784524,-37.22504572382558,42.54480653219529
-26.163573079991554,-42.60830252061142,72.29294197932461
-46.41270933751602,-18.597322709230312,49.185662620846095
16.427793058871263,-47.22422699436065,10.32532896649867
48.30777590590509,12.898014848218128,10.036990514146316
-31.80061070445434,38.58394949747556,48.05898248529983
9.651461323487618,-49.05965036892561,58.65161646859405
49.579424140139565,-6.471530107489717,73.18428614955701
46.43710824130979,-18.53631511883845,4.9300391909171015
22.59911124412367,-44.60134718790144,78.54272269906029
21.24773702534802,45.26072990244032,90.2786407996236
49.56236365783885,6.600917258088833,88.20064488814226
-29.50676600834899,-40.36521720155288,1.5888986048645082
-14.894509095399632,47.73000732041697,44.473717448583685
43.75553573574991,-24.196137966161306,3.0986526993610486
29.71072383693673,40.2153315177841,12.646259637720082
-19.06971387211879,-46.22062324153062,40.16529839393173
6.458154625279586,-49.581168187488075,5.812238256329161
33.84163660618943,-36.80684218748763,26.317743253924142
-33.99855511446623,36.66194553114445,56.829948466560595
-2.4829847807609164,-49.93830980898842,17.92685242270382
-0.97814515193839,49.9904314050373,0.883426581251201
49.39604186131605,-7.7479706010743525,32.21483982342052
-49.62837635731332,-6.084756374487333,93.47210197203628
37.03068210054648,33.59655612065419,7.657529731482993
-49.89956593082143,3.167541620185136,29.44730943468742
11.220171386151822,48.72481661397383,29.54281720344081
-9.905428866575543,-49.009004060164415,63.058522081033466
28.826844009614362,40.85355632555581,33.81840170169603
15.654395629585224,47.48620744460883,82.47373585881759
-49.448684361955934,7.40456716301867,88.75179933497483
-14.910632335628415,-47.72497295286517,95.57654616077753
32.70785663835439,-37.817933763293524,99.23526540222429
-48.69648268518672,-11.342511806972476,87.5420892825466
21.115507647862895,45.322569838580904,25.28609027795077
-38.9721244059351,31.323689426507816,22.1839068201936
49.99663570800632,0.5800154143702538,48.303498491418736
49.30218378392395,-8.32434226447868,11.67541453241876
-49.75069152319696,-4.986852009404075,80.5258213902937
-41.364234566806964,-28.08914556732141,66.6877377038252
-49.5368812308935,6.789506456021062,59.43136707773129
-45.77153693818819,-20.123777138402072,56.04135381835411
-44.40478163270912,22.982936456236803,79.19530893198267
46.654988169732995,-17.980880926196974,81.16101510805966
49.99125009651713,0.9353682630259949,87.45288403662782
-27.825799654370183,41.5418448506425,85.58339205712664
-46.42637635041808,18.563178040662663,55.278585372565026
-24.37967481792433,-43.65353886882788,21.59759969679731
49.325232366631994,8.186663055101254,11.799725189903986
-48.4283930365695,-12.437473533461151,90.5860559004065
-0.2022838328453064,-49.999590810835336,78.89294016110635
44.75164882731954,22.299998368526158,35.573426725593016
42.490189913952854,26.3549570494095,12.278523021528454
-49.43830846657358,7.473530354786748,49.880976319727324
-36.62988999529331,34.0330891770452,83.45202623448387
42.117875498606175,-26.94595634754701,68.1589138335039
-42.06601819999264,-27.026840599631473,79.71984286324776
-48.8287594125562,-10.758822158150204,14.97827874974732
33.89973238360423,-36.753341947638106,35.55832303496083
48.551587630965216,-11.947524367529264,88.4599627718227
-49.89580839644786,-3.226190395026834,17.097059248631997
-44.5132028356372,-22.772236897446422,3.2594567374401917
6.6534968039593165,49.55533251103965,13.60547608348166
47.10343430314744,16.771001068781597,95.6152146681953
-37.3884619842208,-33.197935334211316,95.6910653610432
43.40528952177435,-24.81896133062272,45.5530528753892
-14.60884947078315,47.81821323659008,65.01049073818199
46.76632945867012,17.689274404653336,79.34475470712331
44.77854420065903,-22.245942984500022,92.39987272800596
-41.061582814015324,28.529746174962046,82.82791271063488
32.48886395610994,38.00623263152217,56.44644468547718
25.44209333363017,43.04300043912891,8.399378023489968
27.54047110169811,-41.731552229656295,20.837455155408158
-35.75148212678153,-34.954706775174365,59.26799206256466
5.031035664528693,-49.74624287463567,93.31554439083759
20.74190154027459,45.49476366015714,92.92201447339203
43.86403952936294,-23.998875727135328,48.500281922497166
-40.52970179202368,29.280424734788813,67.69081173597911
8.601518313152233,49.2545823523914,1.0594122345176538
0.008879074973765127,49.99999921162027,21.483956401168847
-34.34292851877202,-36.33955504343051,8.703734060090895
-17.84456748318464,-46.707295054820605,58.10018361927749
43.71512513968264,-24.26907155253135,43.73681819040045
12.30848752992352,-48.461336493391485,62.0057036253544
9.22573525508666,49.14148765557521,39.919370995094994
-34.20688558221389,-36.46764290114358,78.22941189589368
-35.26393269314991,35.446509715527604,16.00785860760564
-49.209686497792745,8.854758878080988,30.94591315926093
0.24186386497226706,49.99941501528614,14.491950927541863
-22.919818774912688,44.437393120267075,55.40251394734263
-49.80655698067769,4.393959686946003,76.09310104086153
-37.48295750788153,33.09120572693517,61.21312055491911
13.893208083656598,-48.03101882267561,55.05355929380471
-3.590139452049174,49.870942428580996,6.032607623870955
-35.776286460006204,-34.929319019007174,5.9628457040193705
11.936191547864347,48.55437499682898,93.64797482061252
-43.92655089072141,-23.884265256542072,92.15769299953773
4.168343867667923,-49.82594614656981,35.184694600431584
48.16669153059958,13.41528333640652,58.11098103953749
-40.565424835201334,-29.23091356662721,64.65342944378317
20.43338401874633,-45.63416283380733,17.335722638450456
6.3302413294984445,49.59766168591327,57.618218382959995
-48.44152112454347,-12.386243625103145,28.997414110903243
-45.9950729611203,-19.60747977944183,31.154158412342802
-6.913509579472953,-49.51972723364433,53.879478543233475
48.57598658631304,11.847933455516008,64.3891641410386
25.394875751307545,-43.070875142904306,87.11860217111278
-35.06419482400719,35.64410528185646,45.72855152488231
-41.150707173610996,-28.401043979257533,42.23213438718448
-14.012824936146023,-47.996257534404954,31.30185165113749
11.161098558096597,48.738381989726065,81.19777715747313
-49.82366811022085,-4.195485197514365,79.47275731170836
47.95483955584373,-14.153916884498255,53.86580143055934
-39.09443963040178,-31.170896521994212,21.964429451125767
-40.94423610673598,28.69790113642212,35.665071807848335
-42.41827738003346,26.4705448396995,33.26750287877706
-35.788001371235445,-34.91731601730651,9.655649759451379
49.64177868798087,-5.9744295705555235,57.90214273810701
26.94652605622939,-42.117511007904426,78.4955697251651
15.647507164382413,47.48847775556299,56.500135529030175
-24.163301303488804,43.773677822600376,6.448797735186784
-5.141792748915563,-49.73491698321411,22.152371072280317
43.70130111885672,-24.29395563754517,11.642502357938012
20.663283554181096,-45.53052506571289,46.53675988791272
-38.23211928943221,-32.22274126511625,20.666565750657927
24.48262920061806,-43.5958813126314,66.23997844110092
3.1265912395141884,-49.90214852309461,65.34704183836647
40.17348375259018,-29.767284108234882,56.94477101974395
7.894858013747609,-49.37277809626237,87.56431727700318
47.1691722092355,16.58521007088802,84.70261214517338
-38.26883064331326,32.17913300872801,95.43462428830651
10.098583998252538,48.9695681135768,70.25071834363314
31.096153431954743,-39.15391732300012,73.19045953071638
13.899928907298378,48.0290742818561,18.471338188451913
49.74734207726082,-5.020155002387392,57.2020960707743
47.42024461247482,-15.853088055424813,19.235555849716647
-43.08054239268453,-25.37847251416269,4.570684659938829
49.294127445423186,8.371917306948072,22.915295497640486
-46.448997068822884,-18.50650348662554,92.81179728858633
-28.56636414376576,41.03611628316907,80.11069698705415
-47.802703355628985,-14.659520861669986,15.764467053387477
-49.302642331287174,8.321625992146629,71.35236396921823
-49.73907725971626,5.101391315315569,38.43741928722786
-46.911431926627856,17.30079635720162,27.61345572005347
-30.6395362906554,39.51226158920305,46.95821710675786
41.219334848582875,28.301350403123905,75.3686867574988
40.78457680000923,-28.924354707480493,64.37713401831
-18.32198118747039,-46.52209158417086,84.87118271859819
-48.34533168329151,12.756523994902768,61.96706227619527
49.434204967419795,7.500625256545515,15.731687222684398
1.9512055028879003,-49.961913465013524,57.7876928004736
23.155680915050024,-44.31494602682472,55.255363651163414
-31.937666130142517,38.47057943623344,50.54335678297287
-20.827025795010936,-45.455857670205155,89.11242258878262
49.801729040051576,4.448346279381115,50.984031406778776
-34.8278227377469,35.87509948903389,92.01503378055452
9.223464334249062,-49.141913939882684,37.522284598764145
36.57504870099929,34.09201977764782,76.93622796771051
9.802575738558568,49.02967987749688,79.81946018486067
-49.7610039056435,4.882877256549917,35.19979808976266
34.02874094223685,-36.63392949010703,39.983443935673954
31.63850465246983,-38.71698623802794,61.32127663425887
-44.37812283738691,23.03437026336509,79.58450681968013
-45.30657753816855,-21.14979980467714,86.78627897171847
-11.510345235935407,-48.657085327314654,1.7863426734077037
-49.95634449155356,2.088933948507416,24.643374742024804
-38.47009965023548,-31.9382440484907,16.804692581638157
-38.632899083152964,31.741126451827746,58.736211712192286
31.97985122054774,-38.43551893641649,39.053478820667166
-11.85230508399894,-48.57492011517685,65.39147464598857
-28.062032736346243,-41.382633056684924,35.715976274703955
3.896058061229761,-49.84797620348821,72.59601221636248
-49.72311896639218,-5.254658909387984,65.74716199459391
49.02315225136046,-9.835168699108943,98.78040481891453
48.11757334214627,13.590406015390943,50.78742966998793
34.21785162782267,-36.457353578891514,62.661345236591295
4.2559405780642345,49.81854042217602,95.91742709294667
48.28190203820565,12.994534834810858,77.35151058093106
47.38082814226743,15.970507961643502,51.55355380263455
-44.72722250062869,22.34895002856409,27.838592593555433
-10.997320335526233,-48.775597848082,58.90165276953029
35.51443657088747,35.1955223722054,2.3520379244734158
18.437256120376247,-46.47652726647774,30.587867346596333
48.95946380681943,-10.147457994430821,23.360787346523615
19.687351826797553,-45.960941875117086,93.8238371943922
-21.20622993882904,45.28019226749717,98.30364938595076
-19.093784292935716,-46.21068492648471,82.91823904248481
-14.133239481084296,47.960937665670386,86.69333340766937
-45.90478182710177,-19.817946548676197,85.95969850750804
-25.05975557109411,-43.26671527533628,60.07480232797593
7.537862677108449,49.42854060420007,3.1655025870290787
31.321699314137796,38.97372386717415,98.9311895547764
-18.578251653761136,46.42034646024867,36.377803696835855
-29.019566528194176,-40.71688542258251,29.21604168197619
43.141615318571546,-25.27451340193106,32.65287722254708
-49.13242041762812,-9.27390230191366,62.16753919506232
-49.320964485810535,-8.212335976408637,65.38960782100956
36.01311625158854,34.68508984923593,54.19102780081707
-37.370186478372744,-33.2185063266193,3.3489420895678634
-47.53903896910045,15.49321702856927,40.62414858667081
24.81857812792422,-43.40550863321523,63.21473966040598
-38.10232251616056,-32.3761180328106,27.135489060962325
24.508676880351064,-43.58124318528035,5.957597753958643
48.47396881148206,12.258643793807892,76.09400724967524
-48.83638921706548,10.72413578053217,56.09290023761398
43.94566473650356,23.849078616727056,64.17997013631836
-39.65565082423523,30.453724857664476,31.416879981118186
-1.3143665755244576,49.98272141955802,76.90466500889625
-48.80219219180463,10.878696487822577,35.90688981649354
-30.89667247961626,-39.31152031767944,92.03991852855613
49.94651918729468,2.3119734153325755,61.154803263492056
-32.87879323509903,-37.66941671175181,23.77071837996665
28.97465729555886,-40.74885562325545,32.61418360429511
-49.66156127132994,-5.807695936767207,23.40959455749887
46.89977795976913,17.332363581587874,36.46559159328089
-12.569292230965065,48.39434773620367,58.24884868364934
2.5866838845661873,49.93304583621277,29.708797525737396
-3.6731673223378705,-49.86489588700761,32.76829123620884
34.430193069274424,-36.256886314360855,8.798283248155581
-29.908507963048493,40.06845581532017,41.76889600256801
19.262047396498783,-46.140801142752544,35.308370440979985
46.79265182027557,-17.619527111317744,31.544814278467236
48.68735774913303,-11.381616555126774,10.829703888805309
20.37447560500339,-45.660494344905224,23.640711477423938
21.252861071250354,45.25832405520703,58.92133868512227
-43.571790074129666,-24.525478787089476,56.352096833657264
9.4862182689617,-49.09186962169619,62.08597609102221
-21.95038568666604,44.92416463560126,86.57055547352151
-5.671108438277231,49.6773442233107,65.02654212731257
41.35754736856843,28.098990651918765,46.165206666131176
20.09525438223098,-45.7840665659291,11.97792720235693
-48.16301388302603,13.4284806922988,39.48876685640242
-41.488029068045,27.90597505999482,32.5669089342833
-49.90247180905606,3.121427132957811,77.43073844622296
48.642668327452924,11.5711199970188,84.3565224086121
-49.96522529205141,-1.8644735220824251,45.03348356780441
28.647871130034748,-40.97925670039565,46.546606667845225
34.94728742553598,35.758734619627894,8.607801413829607
-43.176952896553274,-25.214098012199837,13.543063411730827
-22.98167145499505,44.405436346630644,18.070676695019227
1.4889326442316613,49.97782587889294,36.628947026024704
-26.62175878709614,-42.32353906612335,42.88900312749006
12.211836757947394,-48.48578186434911,44.6153622373093
5.910766872661267,-49.64939914014116,29.535468821303333
49.94999879911345,2.235535722945382,96.14568740245714
37.593672291862305,-32.9653727964976,45.34726056186026
-40.13652524731274,29.817098132981123,30.001437909085638
17.064941695587912,46.997742125831806,54.85204267623733
39.92480440256985,30.099999890640188,99.40997284668474
-30.081555679507172,-39.938703132434206,19.147497470782405
-46.28343899398639,-18.91674588532448,55.9753270437466
14.382703844924416,47.886718723558374,95.42041232551193
-4.827530068966199,-49.76640386277902,69.81143671356338
-0.7589047711800005,-49.99424030374179,10.599217124772963
-31.273957059395475,39.01204442024396,23.660393166202986
48.39395673833112,12.570797556580738,17.75931491485745
17.600989468783315,-46.799627880142154,30.48046705819193
43.40757965033535,24.814955750510467,91.76478574283186
-45.81107879699216,-20.033598265308587,34.15688776258246
-42.82301352637191,25.81064727046124,5.351548295018715
46.886268349607086,17.36887561843405,67.22229070883499
27.170423890964944,41.973420942130524,45.22104858365024
36.32022914350318,-34.36336646726311,81.30078987331538
5.801410727227505,-49.66229589511554,26.350881982495466
47.2737090110837,16.284852972482852,64.51834256554051
-22.591432026082515,44.60523734956349,73.8061939412795
-46.12786454656939,-19.293006825618104,17.76158844572393
46.25141976254216,18.99489852431764,42.78316041038167
49.16105445427132,9.12089496399172,96.08956604125554
44.32705664661292,23.13248903702258,43.63009404039707
28.800409977066344,40.87219574665518,34.805078988205686
30.680558162134343,-39.4804173085834,18.79592569264816
48.73171390751476,-11.190176926042435,17.25722105351761
13.76432893014429,48.06811052145479,48.87780451708821
-38.686142936795456,31.67621102142475,18.43941966365342
-31.032158835811945,39.20465684059661,64.4471936264875
45.54923028494392,-20.622017855902165,70.96323576147275
-25.32832468941792,43.11004486691498,23.42413720830374
-15.332030710386494,47.591268466975805,16.97197143481931
-44.417004977936614,22.959304623397337,29.248110543097894
-49.96412118271786,1.8938306256591417,71.80307252023313
23.241253208638916,-44.27012705303579,88.87182488731115
1.2215163950685253,49.985076749931864,27.922665152523194
-21.627225152477877,-45.08062923478363,13.031451454415032
-31.834114937214082,38.55631110679863,34.84465320253934
22.206747927054806,-44.797994893792364,11.939538906840008
28.353221938412492,41.18367159094881,64.85776934721167
49.99990612009495,0.09689159763167628,18.025681803309723
41.76140040011485,-27.495189335978154,75.07192627679692
-17.941282382172158,-46.67023019530929,10.546663185802052
16.71881459675606,47.12198253977963,61.4085888118107
-23.678484061074137,-44.037817754396706,98.86611993578694
49.82635048966269,4.16350776164653,41.565662621091825
-33.114797792231585,-37.46211642686001,21.33343054989656
46.20827088099747,-19.099625708069823,69.84337106289267
-17.485783989844773,-46.84279409109248,8.606361684534292
40.312723391756634,29.57844371733776,52.779619590788855
49.92031675453023,-2.821697206889428,71.0644279352019
-36.714720182328605,33.941557447078246,1.266923471452086
39.74162405177465,30.341445544459596,82.82031055034597
-46.33423274384833,18.791989677490072,31.362102058175378
2.5772906362822026,49.93353154921182,12.689150070605415
-35.755380520862474,34.95071907426696,90.65760875943958
26.31914867784808,42.51237952494929,36.70268971405049
-10.45730985762741,-48.894219193495346,8.488528831828756
-12.970991690685715,-48.28823225756108,4.038162556401115
39.071859295555505,31.19919568175297,54.300707358013135
24.126602708412975,-43.793915579112124,7.3786100541827775
45.05491366861518,21.680746165979464,68.40982220295543
39.70887248986333,-30.384296035678947,37.55397865153268
-31.731593346459665,-38.64072959578942,62.85919472588925
48.51024964806233,-12.114275838145224,60.49862855785971
16.346213829506365,47.2525268471439,28.5647818857104
-14.41616583088377,47.87665571796404,62.452259423605724
33.185768406275585,-37.39926169438431,59.360707594066476
-1.025200808314133,-49.98948852811591,46.5083011760828
31.74720357500477,38.627905265069764,85.0806090438321
47.51470233571449,-15.567692890998591,10.861089029646752
-44.63309256782507,-22.536349478829944,57.758925297783826
16.402998831478182,-47.232844815176286,79.49204371783664
15.291313782598012,-47.60436663586785,9.063163072621961
-38.82796812153847,31.50220455067855,34.11273245793481
45.32643851962348,21.107201878192974,76.03795634728567
-49.999133082996764,-0.29443326710609974,21.345556377210873
0.570228202857376,49.99674829223063,32.93459861190583
49.26621779255713,-8.53462268740262,10.633454077944283
-24.646353708238863,-43.503531453071496,80.90723725443131
-7.448346567016725,-49.442108909487374,18.955171369580594
-18.324610941788993,-46.521055811665185,90.47342077299679
-27.940294290210243,41.46492439371432,6.868538595928541
42.620777811443375,-26.143245757701468,43.71067690445253
4.681473335982351,49.78035563758546,54.535699338566204
-49.829065550593846,-4.130886872648682,54.07724827024152
-26.975445998676207,42.098994206186255,18.98699809891141
-44.25035024041862,23.278885359919705,85.78836513106157
2.036975736849277,-49.958490067730104,0.025239661106446487
33.27313802895433,37.32155256291133,16.8445700910672
32.81719129328593,37.72309578520668,97.67411754643511
1.1127873588556496,-49.987615509183584,68.14750197850982
42.839452244691344,25.783353765071165,43.055409192319
49.07358330632808,-9.580366458381304,65.69916632628224
44.65575543075859,-22.491409624749497,3.740649468120205
-33.92826058653844,36.727008230618814,47.00982184245296
29.887860662303794,-40.0838594078803,43.30153292835348
-7.4541243005609115,49.4412381611928,37.31580094878263
11.90789576705997,-48.56132224724565,94.13686605091624
-1.2996033006548586,-49.98310745902986,73.78885546765702
-49.3711730152092,7.904889316257307,64.28822469824881
-48.01276265629092,-13.956167887736108,18.493702606690054
-32.05625410825647,38.37182003172237,40.57705714201527
13.232560070938328,48.21721014294594,38.474497035480425
-49.87823568435499,-3.487349282182159,59.684933419830365
48.39691569359802,12.559400915121941,87.95333245707577
17.685438714859117,46.76778012117918,28.17595416019335
49.4585107126038,-7.3386455215697355,88.53784241306306
49.41682103524255,7.614315384248904,65.05774645313954
43.76548043179855,24.17814555696648,12.094547240102004
21.64343677863681,-45.07284819499597,64.36775517226364
11.46609081588365,48.6675329290679,37.970087090670546
-34.1354002331574,-36.534565153045925,66.66355032203778
3.7150647153857874,-49.86179192689023,21.914111970446314
-47.60194369729665,15.298854736201651,55.7249622263164
-16.332411564675198,47.257299250825405,41.42465979698312
-2.346124973366749,49.944926645349526,48.928905983982375
-10.279901450381097,48.93182631141467,4.084061309668474
-49.26560709126363,8.538147218760923,66.20437385813946
-36.634427866253354,34.02820440329286,74.2127472013099
49.01417324858301,-9.879818862605173,21.588932704820742
5.494798843104767,49.69715470400508,23.229508536120747
46.18956727089347,19.144813274816936,87.00881698427509
45.666925104834824,20.36005774720216,50.46679437631323
-40.28257373362565,29.619491106280215,74.3058235795673
44.77961835840475,22.24378069653675,26.79063165142277
7.718579978590709,-49.400642942315024,72.15721802156322
49.88843015889471,3.338343343798726,33.86351580334157
-37.154786232530554,-33.459256716414934,93.2549042508393
29.53450689282694,40.34492412432521,95.83837849066916
-30.80249718245608,39.385354731483446,78.66633402570092
-48.27270225073705,13.028669057570161,2.2666668146137936
-33.28105971354909,-37.314488665171055,51.186354271940516
41.16897420459317,28.37455837438782,2.06473519791347
-40.11936061084212,-29.840189412555844,57.661931212050476
31.981092188636488,38.43448636864989,63.93922041281896
33.222253424744366,-37.36685533172494,61.50450471990813
-44.33548704098484,-23.11632732158518,12.110577316354842
-38.494920772881194,31.908322968930847,80.13194545092713
49.799709658115866,4.470896774402338,15.100833624002885
-49.91217413154863,2.962241290301581,73.4200612538503
-8.840696543343709,-49.21221479092879,52.74974488082793
45.46081771344656,20.816196886674167,77.24883887259337
-45.27880800075019,21.209185416493515,47.41970092929782
-38.41269611522936,32.007261319254475,85.07192771106223
48.88991320962176,-10.477422696238413,19.13135478756285
-41.24902900617038,28.258053826265428,37.327791972459366
6.608360974714364,-49.56137170446226,43.986833253457625
-1.5503426581737023,-49.97595859653166,45.57099331182698
17.15516326338364,46.964884471343616,96.3805782308534
19.537644066784353,-46.0247809806809,43.86090144380278
47.338437869384784,16.09572303708028,52.00550864954352
0.36189497034194096,-49.998690303151356,60.827491258274726
-35.323823612408525,-35.3868264386544,68.74045658401884
49.65524270939767,-5.861473489730186,24.940979835407962
24.607278814511602,43.52564565109734,24.45179958169469
-3.1502809695959546,49.90065861101035,87.22376370436874
-12.57422068022504,-48.39306741967284,79.16000290303158
-49.61115688423258,-6.223593223216214,19.35232718166544
-41.99311374290382,-27.139977858788715,3.3746686849945973
-29.55455717323646,40.33023865902478,75.9507099182339
-48.41665989217632,12.483070330865107,11.127264165510475
29.36917958619784,40.46543327870913,15.318732028219383
-9.427221981273249,-49.103232945660494,60.889747442817274
-13.167183957896428,-48.23510409047455,17.70930337933193
3.0988058114810926,-49.90388163803224,87.64735264398225
25.826079383952237,42.813708361385814,34.01191864663379
3.835355624285756,49.85268345069561,39.543193511590204
22.751207334444064,44.523954954890726,61.645790237907946
-48.720575799242944,-11.238571697071775,52.32026750768905
-37.988586251194775,-32.50949576101627,27.78266988910265
-29.060613181628415,-40.68759960366014,51.55634903964946
17.788149033957655,46.72881074824943,34.18757468766034
-10.303998194247537,-48.926757722262195,46.52096184977529
-20.937944745715868,45.40487275420282,69.31136979343917
44.66449054666834,22.47405802712484,85.85898732553662
-10.935134577692828,-48.789577081255246,92.22850822966099
-14.121230945860047,47.96447473467926,94.42266690739805
-44.93349274863905,-21.931284262623613,73.4318506391955
47.106312031141194,16.762916417639335,71.34235262003537
-24.055309601928947,-43.83311624736878,49.455231686555855
36.64068091013124,34.02147119749444,68.44468018244879
27.580171375958017,-41.70532516205558,93.3483484064411
-10.35041799073097,48.91695868936613,10.269762003230065
-47.766321151310066,-14.777637283067577,68.22516687017296
4.1379479167414415,-49.82847967817536,57.72900719754932
14.07693575743228,47.97749347017958,61.79994874157215
44.983601475473066,-21.828321014127887,3.7580265403265534
14.754747124175232,47.773396752812566,63.44391826866445
-37.60680199980582,32.95039367515054,76.38428590193354
-48.07343903841457,-13.74570693052335,86.94995307925501
40.89614936454613,28.766386063472293,94.09358703813206
49.89025293762323,-3.310991063107296,4.41005776665021
-27.522736920229534,41.74325038158665,34.69156637905692
49.520061985736405,-6.91111141053479,84.82494448513455
20.965016087833924,45.39237932116871,66.91964282398983
45.330913531475645,-21.09758939788805,13.720789644006748
-4.682353407624944,49.780272865524786,89.47384385772136
-45.37504879991276,-21.002498575301352,59.25671679291942
-37.99557096051717,-32.50133208630539,72.27824688735215
41.95398899798106,27.200419245983774,79.10005259212208
-7.418705427351332,-49.44656519701028,24.524356655221236
-48.30402275176103,12.912063584003613,3.9134029376875934
24.11211108189015,43.80189606825931,76.8743915357323
-26.543639434727908,42.37257610246464,6.830764104002585
46.73721667057135,-17.766051274497304,11.015102956559398
-49.695961517907584,5.505579788782325,61.75079296388838
-29.389848597844566,-40.4504239705318,68.50298134033967
-38.28461174894574,-32.16035608062332,63.748560138784825
15.856452898033021,47.4191195773652,41.32984820757184
45.40956462961581,-20.92776720409383,9.852143448528905
-31.608151194423062,38.74177045606579,77.69257497986187
-20.620263445362344,45.55002453834524,62.83738948858131
19.295928519928452,46.126642437465705,88.38128400271107
49.92218879370676,2.788380541730097,83.09876534019703
-37.79900278482247,32.72973248398133,48.67719250005907
40.61078761183986,-29.16785781551388,15.492079808671145
39.60689818385267,-30.517103667516153,9.64244138377175
46.93302003384163,-17.24214692267237,67.18072741630014
-48.69826240691632,-11.334868263333316,3.671619611327892
48.58620613330592,-11.805955004653624,12.437990699055156
-48.91685526970072,-10.350906748838607,19.099763219293486
-31.607913343637424,-38.7419645095742,62.94266543789592
7.142723048013866,49.48718528527735,10.89919667610646
2.9192588947793316,-49.914706525284224,39.740966751351394
-7.244628928686082,-49.472369578236744,21.91444745522324
49.362736446461014,-7.957402246790685,66.2106619039483
-20.18466495292587,45.74471882893288,75.85232213178804
19.533974806452274,46.026338419006215,93.36740797811859
-49.32849407108516,8.166986756381824,23.346528076868857
